5.266938529479343600e-01,1.513867788521143254e+01,1.401966009841997618e+01
-1.682889778359612620e+00,1.451588308570230978e+01,1.358405479493317358e+01
-3.138938703972275590e+00,1.309676969689399328e+01,1.341466393324571271e+01
-1.336427266680608383e+01,1.285928826062277608e+01,1.468217807020971044e+00
-1.385459390255649126e+01,1.332811830202134473e+01,-8.789848782505276237e-01
-1.263873230184088925e+01,1.226157364660807048e+01,3.681955558325524791e+00
-1.396767995025188114e+01,1.396026887136236638e+01,-3.044308561421732229e+00
-1.436473429609773333e+01,1.230349260679357570e+01,-4.419007868343912904e+00
-1.460621948379422008e+01,1.070157185386788257e+01,-5.948196540268371635e+00
-1.406031820040673352e+01,1.144070757718876052e+01,-7.908551487719433837e+00
-1.332972292841449402e+01,1.228073151433786592e+01,-9.872112472882754730e+00
-1.234311840137802108e+01,1.319593427287750131e+01,-1.193957793083666452e+01
-1.115503135289169911e+01,1.388098382877667802e+01,-1.395472779901502491e+01
-9.668620794704311905e+00,1.405544796922107054e+01,-1.581327325633985836e+01
-7.905368240239591948e+00,1.392413658410763588e+01,-1.721670968603260476e+01
-4.579565128359596393e+00,1.520423191396104912e+01,-1.836309494623026950e+01
-5.817946569041046345e+00,1.359926489096552871e+01,-1.834938221527954028e+01
2.429613847686272976e+00,1.492890855854190590e+01,-1.926645904095377304e+01
4.811974417623153144e+00,1.514383444870396289e+01,-1.899373799786059891e+01
-1.021808936073309582e-02,1.490624079874388741e+01,-1.926250664392831879e+01
-2.313700369326892492e+00,1.499800199096949171e+01,-1.896012145623222267e+01
7.405081136743142167e+00,1.506787618531361694e+01,-1.856625438160735797e+01
9.915543784438700214e+00,1.487744960994329979e+01,-1.799483015156636156e+01
1.196149615622127271e+01,1.452415654999689920e+01,-1.728997357779118005e+01
1.360465536802470510e+01,1.400230831972193002e+01,-1.643170210938382425e+01
1.488966462469991470e+01,1.356198740585233509e+01,-1.540666493280026117e+01
2.434603821135073076e+01,2.217814379711451522e+02,-8.026579153357563001e+00
2.377154445740849553e+01,2.237545336123519348e+02,-8.777958902436431288e+00
1.544418965988911907e+01,2.212262163198204803e+02,1.617678514095764797e+00
1.905137310735133838e+01,2.218007010616533421e+02,-1.922535739551989309e-01
2.108226137169319969e+01,2.225431541753704892e+02,-1.363289643331839329e+00
2.294668322770702673e+01,2.234104848042734943e+02,-2.911230049876664339e+00
2.480170314674941778e+01,2.226875189673052091e+02,-5.755295982575031388e+00
2.439058857813023806e+01,2.243689883812050425e+02,-4.667408525952637888e+00
2.475262884099769423e+01,2.233357586513519948e+02,-7.214747265877917926e+00
1.735512498331704734e+01,2.226271019321394817e+02,7.691014259327602076e-01
1.346541632837442748e+01,2.208684056986062956e+02,2.546721577451819485e+00
1.509505657133295564e+01,2.274219002109641679e+02,-1.325133613324983095e+01
1.129074651567256993e+01,2.284523352976260071e+02,-1.456285519190053357e+01
1.356749422384030801e+01,2.289976757589672332e+02,-1.381071223241260704e+01
8.231794409258942125e+00,2.304891003302029162e+02,-1.543718527873247837e+01
1.021647789643574811e+01,2.305390383941021355e+02,-1.489841675791436693e+01
4.398490960061803179e+00,2.312296348252520488e+02,-1.607281042592984832e+01
6.527427430369431072e+00,2.321421553025252251e+02,-1.579351537330833999e+01
2.956180556777733059e+00,2.331319131786983405e+02,-1.615816411037694067e+01
8.920329782798344098e-01,2.331674835696813375e+02,-1.609744832657156621e+01
-7.166129005919366080e-01,2.320281347181115734e+02,-1.584709091812184845e+01
-2.525725622638329781e+00,2.334643106973387034e+02,-1.520961457160193220e+01
-4.096974045833064793e+00,2.327719412869074063e+02,-1.426505917307436277e+01
2.244801236384126497e+01,2.247198835311533855e+02,-9.848137015104253322e+00
2.035717371586070712e+01,2.263544671557330332e+02,-1.108309495256001043e+01
2.200695927671214491e+01,2.267325206569725538e+02,-1.018704802693137523e+01
1.929160373618156399e+01,2.279885803917022429e+02,-1.160860737917947105e+01
1.738059467845031492e+01,2.283628139315120222e+02,-1.241831719652624955e+01
3.367572634227734341e+00,2.246966116007990877e+02,6.608412729025609167e+00
5.199972324669097645e+00,2.236307748269017281e+02,6.491345862009282541e+00
1.623313688959420631e+00,2.257687488723341858e+02,6.492463519085372781e+00
-2.219089048438434020e-01,2.268645810484494234e+02,6.166342483665903984e+00
-3.682904287814171340e+00,2.282999245943279618e+02,4.502945575903721576e+00
-1.911812676958703605e+00,2.278999153204603090e+02,5.514069552395364227e+00
-8.978803534899165939e+00,2.322773746455618493e+02,-7.511504866519544521e+00
-8.269933570016160473e+00,2.325434512242747473e+02,-9.244204493701619896e+00
-9.374579713978839379e+00,2.336614313508493126e+02,-5.731358753678154727e+00
-7.923566175009304047e+00,2.317701732282862395e+02,-3.588257741147593549e-02
-6.831452748240385731e+00,2.308732812921913080e+02,1.734170924773994038e+00
-5.400492546289743956e+00,2.298144917009851156e+02,3.236763226012292272e+00
-8.702078987776548757e+00,2.329363396023304063e+02,-1.811184246313535695e+00
-9.317789302445078192e+00,2.345254534856419468e+02,-3.789852562169777173e+00
-7.322546165377968208e+00,2.330488415160830016e+02,-1.084491638931987012e+01
-6.489276526146833035e+00,2.341538007426479169e+02,-1.200430782609315727e+01
-5.445280094470664523e+00,2.348503812910901445e+02,-1.317495730536294474e+01
8.845961860381926556e+00,2.231345982056098478e+02,5.109735424477555910e+00
1.214670339221045836e+01,2.222092649495319847e+02,3.393780381098054022e+00
1.078647623471904637e+01,2.240380908294605149e+02,4.167161687613145205e+00
7.142767742795619768e+00,2.245956600831574406e+02,5.932722673604594377e+00
1.569821773760321904e+01,1.146087078265716919e+01,-1.542057442105278753e+01
1.667812125245557908e+01,1.111032243358598670e+01,-1.405951571556567359e+01
1.732735102214610379e+01,1.072185422717840808e+01,-1.266156995041927757e+01
1.035615193406444945e+01,1.900952370869335084e+01,8.856075963106970761e+00
1.188365253292118595e+01,1.805159066725688533e+01,6.911703882345257455e+00
1.310833323222851732e+01,1.749303868073983281e+01,5.071240492817054246e+00
1.425657233655476830e+01,1.682984823529598017e+01,3.209013417886978914e+00
1.495409600844555342e+01,1.517184067058085617e+01,2.227078776823887551e+00
1.573182874027831346e+01,1.339822177165742367e+01,1.118556043280896972e+00
1.719627775661115265e+01,1.210751776648081801e+01,-3.365264671968695609e+00
1.712096966029957912e+01,1.064552446150394616e+01,-1.788332379770928071e+00
1.638636991279393484e+01,1.127772283194561886e+01,3.497968431185825011e-01
1.756953057536999552e+01,1.193789502842364669e+01,-9.589498552805224563e+00
1.794597258650543026e+01,1.024324800741972119e+01,-6.836016795327367390e+00
1.800679745127074938e+01,1.001993259413133508e+01,-8.929047480550551086e+00
1.776916832997021345e+01,9.850386977962061863e+00,-4.404708654744212026e+00
1.778938088871060685e+01,1.014991822880354455e+01,-1.104146658386684265e+01
-6.007692053166522328e+00,1.228395727186225272e+01,1.200779552881223822e+01
-7.509270094159894882e+00,1.199672834739967264e+01,1.077736917881823686e+01
-8.944348439435671594e+00,1.180402137948968289e+01,9.377977944937505583e+00
-1.021946844516869746e+01,1.192531666217972131e+01,7.801806723334678395e+00
-1.149550352183728918e+01,1.204000751452217699e+01,5.902171473528760259e+00
-4.670440309193018891e+00,1.148885295032803100e+01,1.306661189652778887e+01
6.629676311905611463e+00,1.577925934817826459e+01,1.303989480288793779e+01
4.785175924668677361e+00,1.427482546661686413e+01,1.426702020022032258e+01
2.817343159470059533e+00,1.455330427415008110e+01,1.439306665860705436e+01
8.664190895270991177e+00,1.545857096733126035e+01,1.132824980219215760e+01
1.045097903567717168e+01,1.667089788028749453e+01,9.084876922799196564e+00
-3.842426521653017346e-01,1.310478370642822199e+01,1.409726961060004058e+01
1.401137761120981651e+00,1.284491241611151047e+01,1.450080725155025618e+01
-1.715615354523237102e+00,1.168685682471117815e+01,1.398910805539548363e+01
-3.060864813998762202e+00,1.032909163665408059e+01,1.368877915558940117e+01
-1.429983548669577686e+01,1.118117726749276386e+01,-3.158334436641139220e-01
-1.387601012117557886e+01,1.075853414595231072e+01,1.809643359948852392e+00
-1.446213300779676558e+01,1.163694302492618249e+01,-2.407854307877040689e+00
-1.328526245543509177e+01,1.019080158439604489e+01,3.838457760045237421e+00
-1.231383792104250929e+01,1.008697116678377625e+01,5.725492478144690978e+00
-1.497734058727468920e+01,9.841676168156141102e+00,-3.863430716828989198e+00
-1.525067596382952217e+01,8.407126939553712930e+00,-5.468050160322129649e+00
-1.480122238620759489e+01,8.956837054674998910e+00,-7.545978855679408959e+00
-1.408558146993856042e+01,9.794318386710052948e+00,-9.493365635717966100e+00
-1.315035241891644091e+01,1.084959791692764952e+01,-1.149932403422229754e+01
-1.199566305255532228e+01,1.167214035289836715e+01,-1.358000438791369646e+01
-1.061935855908859594e+01,1.214483773431590663e+01,-1.549291109272101252e+01
-8.956479893284679861e+00,1.205136602908611820e+01,-1.711300635115166457e+01
-7.189378057062719485e+00,1.198284228118038186e+01,-1.823507591312498022e+01
-3.549337395841295262e+00,1.324089779524278043e+01,-1.920729311829026997e+01
-5.093311073008074175e+00,1.162504944060496115e+01,-1.923752543557905881e+01
1.344067759811592211e+00,1.294842989641538367e+01,-1.991141205269707015e+01
3.963103433370369189e+00,1.288141633915659057e+01,-1.981071806044981898e+01
6.170712143141440009e+00,1.328455060222633399e+01,-1.939103716192064297e+01
-1.197723076653029572e+00,1.289558484290306239e+01,-1.977383358971401606e+01
8.817571271212546691e+00,1.311616767288325214e+01,-1.889052703122403898e+01
1.107312633226515075e+01,1.266521297230559995e+01,-1.834856589740507360e+01
1.297739731532843876e+01,1.219408115001344228e+01,-1.762220306684238125e+01
1.446429782493758864e+01,1.167776234880474462e+01,-1.669117224334074479e+01
2.362731474319746994e+01,2.262619818212303926e+02,-8.976327568998772932e+00
2.454215670134912131e+01,2.255464785270547736e+02,-7.753910755100189789e+00
1.420728499374552456e+01,2.230495063158254254e+02,2.370657688777271233e+00
1.602821817430940143e+01,2.239622241083914673e+02,1.537751587883519733e+00
1.940921572029039410e+01,2.240337172901391796e+02,-2.734374450829335501e-01
2.140662968246929054e+01,2.246838660680190287e+02,-1.622298131445262470e+00
2.320454648182626300e+01,2.255418238486048210e+02,-3.161952648923993081e+00
2.490281177134028212e+01,2.249226761449027094e+02,-6.264501716488680927e+00
2.424503551769599596e+01,2.266089716339974700e+02,-4.381991836957617181e+00
2.486049069499330599e+01,2.268541225880381944e+02,-5.754721444396182051e+00
1.785165063952234021e+01,2.249788040173803552e+02,7.124139772071842458e-01
1.576026466711270757e+01,2.296880032787461232e+02,-1.304941613698566272e+01
1.226127938125454619e+01,2.308941397420371118e+02,-1.426560460541981890e+01
1.428803439916921292e+01,2.314082093949557191e+02,-1.358495113322691950e+01
8.760006746074136430e+00,2.328026316756482572e+02,-1.530316630260938382e+01
1.092779477056668469e+01,2.329799668140932454e+02,-1.470118477744490981e+01
5.154801466028232859e+00,2.339413366897811670e+02,-1.597102510274091358e+01
7.200899500703656031e+00,2.348090002967965688e+02,-1.568727763162389977e+01
3.508806774797516681e+00,2.354040974482079775e+02,-1.612456281803269675e+01
1.204237238335615245e+00,2.354552634712031818e+02,-1.613782835535742777e+01
-1.020142389129574667e+00,2.345921104783070064e+02,-1.578900526282205696e+01
-3.994949266584058023e+00,2.350429906771270794e+02,-1.434505748072130160e+01
-2.890254969690925435e+00,2.363198714731499877e+02,-1.510449744776343906e+01
2.120573573095026276e+01,2.287966371161189727e+02,-1.070841150033036371e+01
2.311364748649425849e+01,2.284462988585656831e+02,-9.467727205756130360e+00
1.956007720351316692e+01,2.300652623566442685e+02,-1.153815909319133759e+01
1.784279880854961675e+01,2.307998728101465531e+02,-1.228004033668483252e+01
3.367792370365997101e+00,2.270370491024573312e+02,6.659405847284062929e+00
5.272028001192715863e+00,2.258780863519721436e+02,6.550279299291545954e+00
1.443370352712335603e+00,2.281998109849332650e+02,6.501410405126367920e+00
-3.583128361986780419e-01,2.293172046759378020e+02,6.124156153795730972e+00
-4.144110175964751619e+00,2.308887954667212341e+02,4.293387559586118840e+00
-2.385030853532221329e+00,2.300926423356255270e+02,5.323299088235856402e+00
-9.057871204541223520e+00,2.348339082661231885e+02,-7.556728984699766727e+00
-8.249280415834594038e+00,2.346389507177212579e+02,-9.365846774517731177e+00
-9.460110979510663043e+00,2.359435140093696077e+02,-5.447209216417311595e+00
-8.106279156900477290e+00,2.345199400457799470e+02,-1.108828586602328414e-02
-7.025236442685047322e+00,2.334895450766425142e+02,1.685039352191194162e+00
-5.693591558429314858e+00,2.322653221249510409e+02,3.093639851852432621e+00
-8.911218764461377617e+00,2.352998902373102794e+02,-2.002326172164240248e+00
-9.361267436662473074e+00,2.372346177385534247e+02,-3.304082426068587708e+00
-7.458859909492669971e+00,2.358379844416706703e+02,-1.073602606349365729e+01
-6.526245334465475167e+00,2.370989878664857713e+02,-1.207863660530289351e+01
-5.057292137774066276e+00,2.370506317768684710e+02,-1.362272482301320053e+01
9.114482486591391819e+00,2.255339430769737703e+02,5.023544714487002238e+00
1.267368898046264292e+01,2.244361591966944331e+02,3.167865235091895215e+00
1.109377094506549355e+01,2.265776021320453140e+02,4.048242936744252063e+00
7.208687159536708577e+00,2.268571040046172982e+02,5.939850974729736777e+00
1.652163793144491777e+01,9.320165005368952649e+00,-1.540324329629195432e+01
1.542145693431215392e+01,9.650830419280728378e+00,-1.669190830023779526e+01
1.738539106714958749e+01,8.769737793354934752e+00,-1.402091521682020669e+01
1.792466115352743117e+01,8.308382388147190767e+00,-1.249886815132676787e+01
1.204765764003453654e+01,1.546343827239071089e+01,7.180309788295836881e+00
1.359187413922097676e+01,1.522835050183986283e+01,4.835774795590793929e+00
1.454570731964900432e+01,1.335990592073889971e+01,3.714161819975210221e+00
1.543152884743418163e+01,1.142574089416411276e+01,2.701512878424132680e+00
1.769374529224755221e+01,8.250339848736967241e+00,-2.305050227212845471e+00
1.704285509505045226e+01,8.752770639862793800e+00,-1.874901427676007870e-01
1.623101543493245913e+01,9.177277582124638400e+00,1.931513027993808862e+00
1.845874799023643931e+01,7.871620419500940713e+00,-8.387678349856869886e+00
1.836011659245842509e+01,7.938344939803010369e+00,-6.300743691652307632e+00
1.829868404879358224e+01,8.056374023888963620e+00,-1.052402060125040606e+01
1.821385811920886511e+01,7.485200550107260042e+00,-4.276385741336603985e+00
-6.535652248169995460e+00,1.003827331239082810e+01,1.209817331625431081e+01
-8.275203261162985768e+00,9.863214220594821668e+00,1.072921519538135016e+01
-9.765215786932305519e+00,9.602043254803191985e+00,9.301378752433734576e+00
-1.109623762789030721e+01,9.979433717960159100e+00,7.595787841439431531e+00
-4.673932955597674521e+00,9.128148592018902718e+00,1.318943601900018336e+01
6.768886658030358383e+00,1.363435615729476069e+01,1.331233352371300960e+01
5.288688802124521970e+00,1.196142924357015858e+01,1.447947283448186617e+01
3.351569343222395858e+00,1.234541633694482421e+01,1.479531784000131722e+01
1.036053582584267652e+01,1.433854476494226304e+01,9.661749282861823218e+00
8.514465354029194799e+00,1.318879552523170773e+01,1.187968969232625227e+01
1.331839475688312291e-01,1.078022795267970402e+01,1.448584371541400628e+01
1.955576109445889443e+00,1.061075332381646241e+01,1.498438601078595767e+01
-1.253957291107663963e+00,9.302469360736797199e+00,1.414227288130146931e+01
-2.825679775597592425e+00,8.001322907036408694e+00,1.365771215584933884e+01
-1.477043232766158098e+01,9.011963479607267402e+00,5.324741849171106267e-01
-1.500965737010737655e+01,9.329112498050697866e+00,-1.768626137735747061e+00
-1.429550172246272055e+01,8.562756023259147753e+00,2.771284733880804652e+00
-1.345261957960450161e+01,8.233008939202374421e+00,5.027273004273702384e+00
-1.234289318599373075e+01,8.071643774623225909e+00,6.982981300615080045e+00
-1.562333132711471251e+01,7.375988205406066811e+00,-3.135386328447578919e+00
-1.582866337832957271e+01,6.359068136495629631e+00,-5.143975388282263417e+00
-1.551386031747266614e+01,6.549526001978563272e+00,-7.293144336366317759e+00
-1.488961014756895196e+01,7.184184499836561599e+00,-9.262852804588867173e+00
-1.393709333767488801e+01,8.441811661352730312e+00,-1.122851089593872764e+01
-1.283762293706091739e+01,9.459792439522502150e+00,-1.329213957750209474e+01
-1.152762720130389340e+01,1.007470813827924871e+01,-1.527069611489106293e+01
-9.994904382333478665e+00,1.032962841224886574e+01,-1.688606187092992172e+01
-8.209579948108427061e+00,9.924488280726677658e+00,-1.843016966717211247e+01
-6.361795515556137204e+00,1.015824665393525805e+01,-1.926901811512845697e+01
-3.170354857506749280e+00,1.111840856674650624e+01,-1.994960997391271462e+01
-4.546404082940902924e+00,9.245864923890188436e+00,-2.025523591452655126e+01
8.934773219683176393e-01,1.092683000292497653e+01,-2.059970693756969951e+01
3.191405667307851246e+00,1.092935511180490238e+01,-2.057799088204333415e+01
5.658610891509948004e+00,1.069540634439105276e+01,-2.041304254158725939e+01
7.523015609929686320e+00,1.156484927747772851e+01,-1.974570246180209665e+01
-1.182603514714491766e+00,1.083834615991966999e+01,-2.044788747447954691e+01
1.001451197998501641e+01,1.096651168728551973e+01,-1.934809242108395111e+01
1.215267043259749258e+01,1.038878456352858137e+01,-1.877520847013328620e+01
1.389500995567444264e+01,9.867872113772028442e+00,-1.797423732655273554e+01
2.429800717418122247e+01,2.282970563202552228e+02,-8.275408406098815561e+00
2.485117160253432544e+01,2.274280207618229497e+02,-7.046093730959526624e+00
1.475626416305374278e+01,2.253688819597737734e+02,2.260210237398091238e+00
1.649440141063800525e+01,2.266631417324408631e+02,1.466596655379007075e+00
1.998722557278422585e+01,2.263826568367678078e+02,-5.573029764543022679e-01
2.189059596120202755e+01,2.267732099931557457e+02,-1.973229248640436140e+00
2.324887410593419901e+01,2.281060443329960776e+02,-3.186217623091472717e+00
2.455354574070808837e+01,2.286198973097122860e+02,-4.874253264519040840e+00
2.494520238252517430e+01,2.293235389357652991e+02,-6.210770939712652705e+00
1.835989687847754581e+01,2.270591823276315893e+02,5.108077185279285004e-01
1.628560408493311940e+01,2.320740266922821036e+02,-1.289453270495699044e+01
1.296605865713986461e+01,2.333329160347604159e+02,-1.405099092996337795e+01
1.492331611983988182e+01,2.338337842757113663e+02,-1.340140548233711293e+01
9.566936860910116636e+00,2.351292588521029074e+02,-1.511696793733907462e+01
1.171456242736214293e+01,2.353793060180159387e+02,-1.448540171415908695e+01
5.522075573961443773e+00,2.367825446490883508e+02,-1.595598037711223505e+01
8.096611398689649519e+00,2.370819671281607555e+02,-1.552071084333313422e+01
2.933643524041384509e+00,2.375017876286127603e+02,-1.615144382393831535e+01
6.482169516768081508e-01,2.378922448614250698e+02,-1.609166711454409793e+01
-9.331354513856027211e-01,2.368019454963174439e+02,-1.585055509077233182e+01
-4.102717205766204245e+00,2.385886004517367667e+02,-1.444934625437631581e+01
-2.241397832719279393e+00,2.384941272429758214e+02,-1.545295638508987679e+01
2.261541070286739341e+01,2.303222094819419112e+02,-9.882304712249556644e+00
2.122471466718685562e+01,2.313184696436608192e+02,-1.077048385714632062e+01
2.399364920973449244e+01,2.309132015189610740e+02,-8.714729722493858688e+00
1.968551274553618669e+01,2.324043555657766547e+02,-1.155863970357443904e+01
1.822232271271289505e+01,2.333491277735115261e+02,-1.218482026555281905e+01
3.254480082477485325e+00,2.293400214317187817e+02,6.701507222977422629e+00
5.195352344618115126e+00,2.281491425295338331e+02,6.586159208592590630e+00
1.257790248195554739e+00,2.306448030757978529e+02,6.490864618839630396e+00
-8.552984688462466067e-01,2.316157438236594714e+02,6.012762451077890091e+00
-4.589610293545497655e+00,2.335369492430859850e+02,4.089679317481272669e+00
-2.814745701761278696e+00,2.324829998173212573e+02,5.202961190949575432e+00
-9.337619241383473323e+00,2.375359546698583983e+02,-7.048670774730647182e+00
-8.621485389174431191e+00,2.368812802988876456e+02,-8.866332493057107911e+00
-9.672262001500534723e+00,2.383657143368735376e+02,-5.174350885737068140e+00
-8.580302800137729946e+00,2.368913401773071996e+02,-7.388872335285672222e-01
-7.344713289079042084e+00,2.361702424477774116e+02,1.496192442550734469e+00
-6.042512038341783409e+00,2.349921733533031158e+02,2.978730283499559484e+00
-9.026769502057625516e+00,2.390551067542596115e+02,-1.664859762930733567e+00
-9.591986315084241710e+00,2.399524909041647902e+02,-3.718752082518228974e+00
-7.830666425845041800e+00,2.381835825994793083e+02,-1.027768027122798244e+01
-5.817694634091729711e+00,2.392264810789716591e+02,-1.300122191594616794e+01
-7.090370282413463343e+00,2.397189059483183371e+02,-1.147340309042457207e+01
9.163810171648542280e+00,2.279186792708764528e+02,5.115403354586732121e+00
1.308786741759402616e+01,2.264673651681483761e+02,3.027899269907386781e+00
1.274367674654432392e+01,2.284823437359839886e+02,3.283031879535869280e+00
1.090849721707427733e+01,2.292061050729586498e+02,4.244409688101271172e+00
7.139848953090591976e+00,2.291790223232057144e+02,6.122243881026292911e+00
1.637069744877515021e+01,7.561186548931335238e+00,-1.670429650826039136e+01
1.726573845023854759e+01,7.220336514878620271e+00,-1.539718454422376226e+01
1.503068972499159983e+01,8.163931274786774495e+00,-1.788883795528003873e+01
1.807935456543199138e+01,6.368824475252953476e+00,-1.389051157372143308e+01
1.851797443826809086e+01,6.200308735083359224e+00,-1.198121056496621861e+01
1.306674030468393255e+01,1.326657817638063896e+01,6.251898082999993278e+00
1.145645239739869758e+01,1.272000306011476667e+01,8.675043001859172875e+00
1.415622762593509876e+01,1.127850862495365192e+01,5.177868007839371955e+00
1.516177069847378789e+01,9.210252437850936502e+00,4.220452831081061618e+00
1.838009625867443830e+01,5.602663874573955205e+00,-3.088570754002240903e+00
1.778404697263543710e+01,6.220559012896667461e+00,-9.952200648185396403e-01
1.704982827012128865e+01,6.671929259958481850e+00,1.124459655734291630e+00
1.611725291397158344e+01,7.003476748841540811e+00,3.323369918906358578e+00
1.884971111300478697e+01,5.746536906889734730e+00,-7.516321792059756035e+00
1.881098518107781814e+01,5.944019534174945107e+00,-9.807440945759658746e+00
1.875822237097243317e+01,5.486542651393306436e+00,-5.380243591486134846e+00
-5.935827234583488377e+00,7.822167311509995002e+00,1.268400862016831354e+01
-7.460721904409695071e+00,7.831841085582578188e+00,1.186044399013266570e+01
-8.909202158796610149e+00,7.739322408315818969e+00,1.079414546606366443e+01
-1.110133687230847599e+01,7.888612443710698585e+00,8.582427534559602833e+00
-1.017577295556717587e+01,7.157262449234361057e+00,9.859239177281590827e+00
-4.331755496940729699e+00,6.693314272222996131e+00,1.317873834486018580e+01
7.121912739294215200e+00,1.107758450566076647e+01,1.358169946413979190e+01
4.133200706326430662e+00,1.011263035403412403e+01,1.525147986095056041e+01
9.541537512455107617e+00,1.164454465629096092e+01,1.120934022184601098e+01
6.003782410415929860e-01,8.348873618030344446e+00,1.487662216474352661e+01
2.459967398402525873e+00,8.739813041073414723e+00,1.545851794910912602e+01
-9.808249742812975569e-01,7.020547074117053477e+00,1.424920979211075078e+01
-2.530156505461537364e+00,5.716343045845934334e+00,1.349352486208799107e+01
-1.515127561412641199e+01,6.920316328632829084e+00,1.748221487159311138e+00
-1.548483013714687218e+01,7.243473469343008730e+00,-7.297782392873690682e-01
-1.450289120848067981e+01,6.626206091744307969e+00,4.169339395290972305e+00
-1.350165495789702064e+01,6.343058321514543962e+00,6.424090344457646040e+00
-1.226001722949876438e+01,6.040943411235687677e+00,8.270178030297913097e+00
-1.615213868756693927e+01,5.308332487095128727e+00,-1.568383952709041296e+00
-1.629554176273451560e+01,4.911736914884819782e+00,-3.686989532632270361e+00
-1.634130724087903985e+01,4.303125402711692971e+00,-5.836121352356286707e+00
-1.603538051725164593e+01,4.319216877610010386e+00,-7.822016515257343983e+00
-1.554128187121938254e+01,4.568516378689231772e+00,-9.674760890651466383e+00
-1.460751950831142665e+01,6.029012879659170210e+00,-1.126843697061768523e+01
-1.353220015522040143e+01,7.213152329188311285e+00,-1.317400316140333238e+01
-1.234159817810468773e+01,7.884673962788944834e+00,-1.516230976707999645e+01
-1.096472533131425386e+01,8.283249625626339707e+00,-1.681188161599813924e+01
-9.511446403557629381e+00,8.465394252369506489e+00,-1.807659863643742071e+01
-8.237741751085424724e+00,7.500422984720998443e+00,-1.936961274930335364e+01
-6.547223619311793641e+00,8.175008620250629576e+00,-1.993464423547619546e+01
-2.227400693567759049e+00,9.099187108226562515e+00,-2.089159883074723467e+01
-5.154046012203951754e+00,6.890854019071610992e+00,-2.102717185512487319e+01
-3.180503426256965582e+00,7.544585099971641284e+00,-2.131233019312320565e+01
2.292917874530417066e+00,8.895780291571721676e+00,-2.138386933370134102e+01
-4.035485774036473572e-02,8.796147189272321754e+00,-2.132660092245374983e+01
4.717460835887330006e+00,8.749097630680633841e+00,-2.128789586959607050e+01
8.483199074158548569e+00,9.634126229992702406e+00,-2.028112695817540967e+01
7.102798878411061168e+00,8.336383315140567518e+00,-2.110015116388666456e+01
1.114124210521492842e+01,8.780966253232744378e+00,-1.987450151635804119e+01
1.316663157936522666e+01,8.081890750930799783e+00,-1.928213883100713133e+01
2.478400113515500891e+01,2.300985008163819998e+02,-7.448008222245221077e+00
1.477541110694556536e+01,2.276503611396590827e+02,2.265785057422995408e+00
1.623610358640086204e+01,2.292185756899301907e+02,1.724156271648489280e+00
1.789096356698946266e+01,2.289740125099377224e+02,8.723489384036113847e-01
1.975687711849659678e+01,2.288250007006864450e+02,-2.865978580936285880e-01
2.144642180072334270e+01,2.286822176740401460e+02,-1.582459750973562507e+00
2.267325254519901989e+01,2.304432160232877322e+02,-2.497529826748738913e+00
2.388458438600842015e+01,2.300020303151991641e+02,-3.838081455311666446e+00
2.470199655859006782e+01,2.309821205533889099e+02,-5.175251820482920095e+00
2.499205033956200595e+01,2.318448539691599137e+02,-6.362901106735691314e+00
1.685274633400916500e+01,2.344355263923501980e+02,-1.272022476402256075e+01
1.379301582760713174e+01,2.357409425556975862e+02,-1.380896720096555441e+01
1.589642583217402638e+01,2.361922567780549116e+02,-1.309778384861454370e+01
1.043232128066571818e+01,2.374279129528025010e+02,-1.488965884547948981e+01
1.252754684296474608e+01,2.377955588906133073e+02,-1.424839727703570347e+01
6.652568487214065129e+00,2.389881798492409928e+02,-1.577436551417514288e+01
4.288329810347624615e+00,2.392801556156406093e+02,-1.609525458577933676e+01
9.147855642758017325e+00,2.393143399047884543e+02,-1.522761253341497500e+01
1.765707299989927037e+00,2.397543594843226060e+02,-1.618620930456383888e+01
-7.401888886285092894e-01,2.398844050275492634e+02,-1.590380347192304455e+01
-3.030229260840027194e+00,2.405480391254656354e+02,-1.512926291570616399e+01
-4.843787208716538117e+00,2.409426501964869090e+02,-1.398147157507712990e+01
2.278164983567536694e+01,2.325686516450093393e+02,-9.825303769976670765e+00
2.129452312037368600e+01,2.337687414691359891e+02,-1.077346502836660846e+01
2.402975613177718373e+01,2.335321210659899975e+02,-8.702217937687574789e+00
2.476499716070610191e+01,2.325565956029383017e+02,-7.553680105872178530e+00
1.973729413005217026e+01,2.349830043615443458e+02,-1.157926876803984229e+01
1.817010765183570342e+01,2.363148193521807059e+02,-1.226423686637345689e+01
3.032527180730099303e+00,2.315982585529178834e+02,6.652923556869112076e+00
5.083692594718193902e+00,2.305260561518273619e+02,6.738157159413511010e+00
8.227285445415226661e-01,2.330066791217032005e+02,6.393322261948707563e+00
-1.327897582418561484e+00,2.339716459706208695e+02,5.890833698934743623e+00
-4.924175930403944079e+00,2.361892301451392200e+02,3.982947839330309936e+00
-3.281513818633030155e+00,2.349599645184753456e+02,5.028347217885435150e+00
-8.942424101095767242e+00,2.391613883947111390e+02,-8.233911597705830587e+00
-9.663783704900129834e+00,2.403524442344493650e+02,-6.097520605785714309e+00
-7.983727706603227503e+00,2.383634003078813350e+02,6.575780012247243178e-01
-6.359143036589191667e+00,2.375868724399053349e+02,2.801116061438218452e+00
-9.300144128969625612e+00,2.415488076098922079e+02,-1.952332160324491639e+00
-8.421600921888440894e+00,2.406085754009388324e+02,7.697440444985303998e-02
-9.792626434119775070e+00,2.422651263178252918e+02,-4.029283922864491885e+00
-8.274803630922772157e+00,2.405904007965255289e+02,-9.686209191832812593e+00
-6.327979766916726589e+00,2.415698253849800778e+02,-1.250082662782996223e+01
-7.572190600624509216e+00,2.422555584869842562e+02,-1.093715710719656187e+01
8.893423498132946747e+00,2.304119828543725816e+02,5.366045192432054023e+00
1.440755069181755132e+01,2.299483705804946680e+02,2.624364423286351666e+00
1.255565591093193945e+01,2.308245579031521117e+02,3.492825551671799644e+00
1.056009693280005735e+01,2.317243534314280566e+02,4.599208715913249534e+00
6.908921868110063258e+00,2.316574362622224328e+02,6.432059319235783335e+00
1.602718173534588786e+01,6.217387256486452962e+00,-1.793423820110968236e+01
1.721796933662097828e+01,5.330112320544885485e+00,-1.678689430569405872e+01
1.789152267720577782e+01,5.368098060492078716e+00,-1.539661756382501778e+01
1.473982860660607486e+01,6.589079809310730340e+00,-1.897412625741426240e+01
1.853635073202789130e+01,3.873273298088910632e+00,-1.472069773710700957e+01
1.877744418875470345e+01,4.306328601409996182e+00,-1.308779807256401284e+01
1.906898682041764559e+01,4.165890838777271732e+00,-1.107765375113325490e+01
1.260393285344394698e+01,1.082949208686643061e+01,7.751601053935281982e+00
1.076382996344092646e+01,1.004661272018814699e+01,1.035722981226618344e+01
1.379160554629177327e+01,8.877620125515365501e+00,6.730373883244539002e+00
1.496229145896484702e+01,6.838052719700760562e+00,5.737169806460165944e+00
1.898460925052061299e+01,3.408827703078351590e+00,-4.199672060728438794e+00
1.851803777942606288e+01,3.668515569599490433e+00,-1.983956349740992664e+00
1.785516535417287542e+01,4.180998640104207631e+00,1.964647773254313279e-01
1.703587579365324700e+01,4.619995095283785602e+00,2.407942692831454679e+00
1.602352982123190728e+01,4.714814472094872144e+00,4.723910431454271475e+00
1.920697712392789569e+01,3.555578376671447494e+00,-6.519057009029630478e+00
1.921485571129190362e+01,3.912621048002722812e+00,-8.777165658619551891e+00
-6.143477799530600691e+00,5.717176892707596991e+00,1.271258384226828397e+01
-7.889816893561086175e+00,5.651893729333123062e+00,1.200114506488605670e+01
-9.472058522257828628e+00,5.503335740618740424e+00,1.103682758142310050e+01
-1.106638503846204458e+01,5.274431203644931898e+00,9.819754903027629211e+00
-4.341871456791199790e+00,4.490483350998632162e+00,1.301420765316479944e+01
8.497149463895404153e+00,9.340108945418087671e+00,1.294603903260208533e+01
6.046768179821885525e+00,8.881071323632738768e+00,1.489448498503526430e+01
4.030479697910756443e+00,7.739707318242526668e+00,1.585874928522123994e+01
2.154333125556608053e+00,6.674158751700701941e+00,1.572399186807655980e+01
5.801690842664726233e-01,5.828101017533487749e+00,1.508848571834117180e+01
-8.817057973882498345e-01,4.707128596530395725e+00,1.424893328374979973e+01
-2.454791642059383605e+00,3.476240828238114755e+00,1.346825394918328200e+01
-1.593372967253657180e+01,5.221052024799497815e+00,7.187238044847834573e-01
-1.544423170488247621e+01,5.046820356514999162e+00,3.228656783773487859e+00
-1.471741057855187407e+01,4.763226357981594106e+00,5.559960412688045750e+00
-1.372095138863034336e+01,4.420283541304382169e+00,7.550280768838824486e+00
-1.259623119723271500e+01,3.935439127492145417e+00,9.110520676456729916e+00
-1.663758380805491299e+01,3.363333975639534401e+00,-1.570717831876340398e-01
-1.681451908516992688e+01,3.155234539275433292e+00,-2.427130170490843675e+00
-1.692823628572143235e+01,2.543467462038520921e+00,-4.592309355391404502e+00
-1.681278067323679437e+01,2.062534072085291825e+00,-6.771163011247823604e+00
-1.643806789274453450e+01,2.057309187117311922e+00,-8.794395939441120191e+00
-1.602946048440661286e+01,1.632059225407836323e+00,-1.069723598703383871e+01
-1.522272992271262382e+01,3.545106897082426656e+00,-1.157912199448717594e+01
-1.415057348656961977e+01,4.995179175948834427e+00,-1.327137713048178824e+01
-1.300965995146314391e+01,5.697101952920505141e+00,-1.518515905065416405e+01
-1.164900130754219632e+01,6.118185042408526897e+00,-1.700528163799715742e+01
-1.010531373311927084e+01,6.408028309360346952e+00,-1.851459748632728619e+01
-8.823623304592265626e+00,5.375443531344735959e+00,-1.998075884739022712e+01
-7.036412160410389305e+00,5.926122396985967100e+00,-2.071833190828315097e+01
-1.011851191144927498e+00,6.781710840729665790e+00,-2.199547554086675660e+01
-3.308434459230989333e+00,5.633835349406954407e+00,-2.208451675431803807e+01
-5.500475264468573044e+00,4.727462916995179398e+00,-2.188727686648073956e+01
1.452556820400499049e+00,6.910978291224513015e+00,-2.213589079262160197e+01
3.937235406669778115e+00,6.808656697690793180e+00,-2.212803186262191701e+01
6.402012402686320769e+00,6.474756332183240204e+00,-2.197564165944547909e+01
9.613753913863529732e+00,7.675665659939855168e+00,-2.080970097818462250e+01
8.873680933372124713e+00,6.136566866104304907e+00,-2.165668428859374828e+01
1.161430271580922735e+01,6.512703789383170516e+00,-2.070828771669112101e+01
1.369528970596013551e+01,5.888643429845416222e+00,-2.008587445720350928e+01
1.759481431133529838e+01,2.312167318149245148e+02,1.156332784653457679e+00
1.586809970948447557e+01,2.315630217551483270e+02,2.012089493012958030e+00
1.934915237997462611e+01,2.310162369871905526e+02,1.049405162293695071e-01
2.102807320091496379e+01,2.309839271975758663e+02,-1.127334656754918285e+00
2.382212166558536381e+01,2.321406589049825300e+02,-3.621780467196622055e+00
2.246238218970998801e+01,2.327455561067474434e+02,-2.241456377119988019e+00
2.470731559812092115e+01,2.332788050056030329e+02,-5.010444809483317385e+00
2.502952267516985785e+01,2.342499093600462174e+02,-6.225999429609643698e+00
1.462583745823506831e+01,2.380095352521167911e+02,-1.355711584980143058e+01
1.683973780775757945e+01,2.382585424381520340e+02,-1.279856704194150296e+01
1.117986769559690430e+01,2.399517834115885648e+02,-1.467037991794043172e+01
1.340298286218580870e+01,2.400580178764139703e+02,-1.399899520593268676e+01
7.837068543910151952e+00,2.409951133426635863e+02,-1.551975805140452991e+01
5.543062731899764728e+00,2.412871514215574109e+02,-1.591935421427444552e+01
3.090404755382232693e+00,2.415899650627820847e+02,-1.614548195845859979e+01
9.778757788430880282e+00,2.421391815170028110e+02,-1.506580674779764806e+01
5.723346764587340374e-01,2.418439144813417556e+02,-1.609661280715539533e+01
-1.678016495924364193e+00,2.421321887084844207e+02,-1.564638144221079230e+01
-3.757929618156481411e+00,2.427573964871328087e+02,-1.477924610647037795e+01
-5.478141320739794651e+00,2.433380524191769325e+02,-1.349787831282510098e+01
2.287953792019186494e+01,2.349323526214080289e+02,-9.770827088524525195e+00
2.152447701962471172e+01,2.361723047931303370e+02,-1.068372490847849043e+01
2.487078154221907411e+01,2.350030114887852335e+02,-7.412787032821476885e+00
2.424997504264729642e+01,2.360105553315656834e+02,-8.563822050252628770e+00
2.012561730083161393e+01,2.374512478249242236e+02,-1.144239822302927223e+01
1.884458876057743737e+01,2.388653840528348553e+02,-1.203574741478576371e+01
2.720904424990735038e+00,2.338037593626294495e+02,6.667648891421144697e+00
4.904489715773529213e+00,2.328202839464342730e+02,6.749907684652200146e+00
3.141692269548173044e-01,2.353455703771871299e+02,6.348268957550054381e+00
-1.774115484209936255e+00,2.363909514222969506e+02,5.874505589686988216e+00
-5.116757547665063299e+00,2.387517746687683768e+02,3.947934657835823202e+00
-3.508710972136238837e+00,2.374597299191114814e+02,5.027585606018339703e+00
-9.260577855727154528e+00,2.415546774003346115e+02,-7.757964643815402184e+00
-9.845414340842593148e+00,2.429436097479372449e+02,-5.872466023149437220e+00
-7.198324842621873998e+00,2.395410469701309637e+02,1.939386620202373734e+00
-6.235509565589511638e+00,2.404814127958463246e+02,3.056682598732201495e+00
-8.647451794567889038e+00,2.428948231650850289e+02,-1.088283925348276782e-01
-9.481624981242255501e+00,2.439016018843446147e+02,-2.077981370559044194e+00
-7.479948557482073213e+00,2.419133708124800535e+02,1.825696655358867382e+00
-9.907078327507655047e+00,2.446832844440154133e+02,-3.906428387227540711e+00
-8.598056556520747407e+00,2.429514532175662112e+02,-9.221097424264673492e+00
-6.831793017560151782e+00,2.439849455723793881e+02,-1.203883682573298586e+01
-7.930389854884889900e+00,2.446831692220662262e+02,-1.049922331065720016e+01
8.567253478335963734e+00,2.330237665464471206e+02,5.795595546351215432e+00
1.427021376111646589e+01,2.324542092124161172e+02,2.811405259020169467e+00
1.215335574406572050e+01,2.331272451132681454e+02,3.885551839775082783e+00
1.023692612956342884e+01,2.343404556347938978e+02,4.917669232661047829e+00
6.591427615960682829e+00,2.342549858661884059e+02,6.620163675092641142e+00
1.674231559690074178e+01,4.432821893916093714e+00,-1.812339365148888959e+01
1.565132961108349008e+01,4.600080497954126990e+00,-1.927998748761056191e+01
1.814526369041742626e+01,3.449485883583217394e+00,-1.626800173864730326e+01
1.767276389991464569e+01,3.086380288229047864e+00,-1.753603258216586269e+01
1.889980719410554499e+01,1.797607690585183882e+00,-1.547359027932722597e+01
1.913660988406724073e+01,2.102058929054986258e+00,-1.391503034073203082e+01
1.932387249092604620e+01,2.355350623107482555e+00,-1.211153632351542342e+01
1.950573697895401182e+01,2.191423747959109214e+00,-9.949803262910222657e+00
1.210624877744020367e+01,8.267933786214065606e+00,9.386783567433138131e+00
1.001626623732037125e+01,7.586121121202548778e+00,1.211840578251869438e+01
1.342777583918182316e+01,6.403791987754132720e+00,8.367427669279269509e+00
1.474281235342974838e+01,4.509404497715920002e+00,7.266292720693080298e+00
1.913121367076677615e+01,1.334574181569299078e+00,-3.040759812830202691e+00
1.945082408579770572e+01,1.424517491592641960e+00,-5.306601161026534896e+00
1.860585672551547276e+01,1.703056150120956680e+00,-8.194787370153520101e-01
1.785663994244318076e+01,2.160214660388729779e+00,1.468071962661944951e+00
1.697011765343229328e+01,2.565625232203752493e+00,3.741145664489849310e+00
1.582127918302449032e+01,2.480665593696205207e+00,6.384180577809260626e+00
1.956521175793248801e+01,1.777886519252709796e+00,-7.619083931308068713e+00
-6.299898798631051733e+00,3.612349366103314363e+00,1.275966962089225376e+01
-8.361521241811676219e+00,3.701525151075434117e+00,1.217210571009647779e+01
-1.009401682140137169e+01,3.645211544540527093e+00,1.124927820839275583e+01
-1.159212768423557804e+01,3.166463247283068938e+00,1.038552756480819284e+01
-4.060492124130075098e+00,2.358439164428573598e+00,1.303266357176641677e+01
7.661321287996482710e+00,7.040270739767287012e+00,1.443952423669685814e+01
5.608015351575790675e+00,6.298125228436241230e+00,1.591469393320549841e+01
3.678209995103685515e+00,5.454675771546373397e+00,1.639576533683886339e+01
1.960312609824992336e+00,4.389328486580341249e+00,1.606996316438687700e+01
5.314767192072800128e-01,3.443397336523461583e+00,1.524321652938028038e+01
-9.343973560157827762e-01,2.479093508088638487e+00,1.424292838338284639e+01
-2.560792730660164551e+00,1.078457632008048783e+00,1.341771246823556751e+01
-1.630100337063915106e+01,3.379040089629249621e+00,2.236003625958531416e+00
-1.575173869156452255e+01,3.143512670720404856e+00,4.594682528229832030e+00
-1.492354005013050866e+01,2.806390152327551846e+00,6.860173989087542168e+00
-1.385384551123097197e+01,2.332668982041951722e+00,8.783927074525827550e+00
-1.267481836009051932e+01,1.492523831903508125e+00,1.037808213625376652e+01
-1.707388795264233039e+01,1.585595676035197243e+00,1.192075633282694724e+00
-1.730854956316917992e+01,1.396318855438174467e+00,-1.188725150112433848e+00
-1.748398342032635355e+01,7.603662983533325814e-01,-3.329918537789566813e+00
-1.748005438985590843e+01,1.348581245076445612e-01,-5.491651348577191172e+00
-1.729329518724275516e+01,-3.128176413460863614e-01,-7.619762396975485075e+00
-1.687502914391811260e+01,-4.810520682963925765e-01,-9.586998464361869310e+00
-1.639661858199182376e+01,-1.037736575393878979e+00,-1.162599222624985273e+01
-1.558612527710634055e+01,8.088941903313191517e-01,-1.264914842526750860e+01
-1.473511168026178453e+01,2.775250037530092584e+00,-1.343737075868653363e+01
-1.373645500748898129e+01,3.491083167399843035e+00,-1.516263356768279635e+01
-1.245185480854533111e+01,4.047336074754696256e+00,-1.704530974108275387e+01
-1.089033465515006682e+01,4.288183181538251176e+00,-1.876384762314632582e+01
-9.469564893039860820e+00,3.604756409957772689e+00,-2.037213222364488630e+01
-7.579027002547947589e+00,3.651383250761305987e+00,-2.155323735784008932e+01
-1.339762639173379455e+00,4.611550800318376275e+00,-2.287146977913546664e+01
9.565366003733046796e-01,4.993460731980853495e+00,-2.289535730942167646e+01
-3.577878424947954272e+00,3.648240029455347866e+00,-2.293087155214429629e+01
-5.696423938171783163e+00,2.681467649804350373e+00,-2.283206879848670212e+01
3.336119816463863685e+00,4.924073403367948742e+00,-2.292245352577244333e+01
5.747583359257518509e+00,4.614572180609329166e+00,-2.283301278863427086e+01
8.141630618270934150e+00,4.334306249550424539e+00,-2.258329401117879698e+01
1.056605590011069395e+01,4.521392488877713056e+00,-2.193033092841116272e+01
1.269895400615657266e+01,4.560269418561554211e+00,-2.123724640607023417e+01
1.473879444130963279e+01,3.912888047310774997e+00,-2.046261537029224442e+01
1.699882620349988116e+01,2.335156037718136872e+02,1.554906876930857607e+00
1.892207657122516906e+01,2.331753213642633682e+02,4.450868398583978092e-01
1.548087479557362300e+01,2.346792595521577312e+02,2.359638006366502339e+00
2.077160484527041717e+01,2.333168003862658679e+02,-8.495471971571859626e-01
2.378378991340476034e+01,2.342931590597405886e+02,-3.514365719601919125e+00
2.229910285464115915e+01,2.349844310581326852e+02,-1.985203224879349193e+00
2.466645536574776187e+01,2.356300428643739338e+02,-4.804184984995366392e+00
2.509697824160406654e+01,2.366460560884520135e+02,-6.001109115889576628e+00
1.559080986639341404e+01,2.401722660987580014e+02,-1.327009424424486284e+01
1.759477970745986397e+01,2.406470880530137890e+02,-1.255838647977567035e+01
1.213235424382779115e+01,2.421446785611881296e+02,-1.440438227829120699e+01
1.437458985326231264e+01,2.422355861139146498e+02,-1.370889214660379096e+01
7.224926778628494972e+00,2.431157748179848568e+02,-1.561862346688007719e+01
4.655398838401422879e+00,2.435281752549363148e+02,-1.602325124586732130e+01
2.121642042807113882e+00,2.437734415481672272e+02,-1.617264931255412108e+01
1.103166369207786701e+01,2.442894743241679123e+02,-1.475990137991382767e+01
8.814831933992008928e+00,2.447253914435621596e+02,-1.531950915992401008e+01
-2.874549901077187997e-01,2.440806489113306270e+02,-1.598147595819926892e+01
-2.482898414573465828e+00,2.444565331830229127e+02,-1.540520258493027228e+01
-4.465575093647519367e+00,2.450205111971242786e+02,-1.438433579704480181e+01
-6.033212275710514660e+00,2.456717535964508556e+02,-1.305353592271896090e+01
2.315633550689935660e+01,2.373266341495764493e+02,-9.623217105495429635e+00
2.188768279055082289e+01,2.385886658205623121e+02,-1.052284300161514352e+01
2.501339350456723665e+01,2.373733193303099824e+02,-7.211619850166243850e+00
2.441762237571680672e+01,2.383859839921087769e+02,-8.395825633844028246e+00
2.073046716342943441e+01,2.400213324814228883e+02,-1.118337391804648284e+01
1.947136632279940116e+01,2.413611830701736665e+02,-1.180429488229601631e+01
2.234351654020318989e+00,2.357619700038804638e+02,6.600329043804524787e+00
4.441467289671322760e+00,2.351192264746482579e+02,6.758419786689870534e+00
-2.722978360037053847e-01,2.376010573318523882e+02,6.340959759625629744e+00
1.597234466245588180e+00,2.378129467697939390e+02,6.544211015890446959e+00
-1.828428025139693602e+00,2.389111512821666565e+02,5.991820964888471934e+00
-5.023336008377578210e+00,2.412928715666751600e+02,4.110011077504908350e+00
-3.632388729028001251e+00,2.398120202105104397e+02,5.068090695072852370e+00
-9.445012487283868552e+00,2.439674822580117279e+02,-7.493134188890358871e+00
-9.938988961893619134e+00,2.454314210329450248e+02,-5.711321007892395940e+00
-6.391446603333193366e+00,2.430458771656159058e+02,3.028369739156979268e+00
-8.882668466908196336e+00,2.453210290654246819e+02,-2.575474586742503291e-01
-7.845589147752335180e+00,2.440831944568441543e+02,1.432629737630205291e+00
-9.621173447602139106e+00,2.464747933447388561e+02,-1.970235662447053393e+00
-1.002901337707750073e+01,2.470445034452626771e+02,-4.085384607469721985e+00
-8.861660308778546380e+00,2.454980150504595429e+02,-8.891713263262186473e+00
-7.316684919073786375e+00,2.464361259565679063e+02,-1.153309878529781685e+01
-8.371170117677380063e+00,2.471981606513411975e+02,-9.892881317936200958e+00
8.249797883344847094e+00,2.356717740329683011e+02,6.009898899974579933e+00
1.362374352552077283e+01,2.344531376494641108e+02,3.234630518379795205e+00
1.192826575031160274e+01,2.356391698005797934e+02,4.187324665324780426e+00
9.999116091325731759e+00,2.368718162506346232e+02,5.181352058025545659e+00
6.132095780592088374e+00,2.366639828098537919e+02,6.607721935031257487e+00
1.698456040166379211e+01,2.699138815783857837e+00,-1.885905611700019335e+01
1.619303515067502630e+01,2.445864228804179419e+00,-1.999506410743437712e+01
1.851720447907632661e+01,1.470464333459118755e+00,-1.688200799120722806e+01
1.799860358442730046e+01,1.161990742528318243e+00,-1.820253244635157230e+01
1.944780329389631390e+01,-3.055611608351771480e-02,-1.461490313356694770e+01
1.917611618758265379e+01,-2.370585135094147589e-01,-1.606294218954135999e+01
1.961919439770007756e+01,3.254177899277737041e-01,-1.295504374647717327e+01
1.978009702619149124e+01,4.668181545696032941e-01,-1.096941188356577612e+01
1.987710604376034951e+01,1.536929131292041895e-01,-8.706704130309425693e+00
1.156545075752676865e+01,5.785556130264073005e+00,1.114462841580084884e+01
9.370088752605166604e+00,5.223001216673189617e+00,1.378013322322292211e+01
1.313163996455573113e+01,3.986039407164444270e+00,1.001781205027953092e+01
1.456794585135229525e+01,2.185305808404569561e+00,8.838415199908535413e+00
1.923466466859364488e+01,-6.129554158377676920e-01,-1.876067194713492370e+00
1.964102040284828732e+01,-6.940407026053723172e-01,-4.202428753353586899e+00
1.985624099160709832e+01,-3.966101844350693462e-01,-6.426402552992968253e+00
1.862678958756906766e+01,-2.210584545843799764e-01,4.348500906966705770e-01
1.781140434045683563e+01,1.522089483144195565e-01,2.943114640856471453e+00
1.675372794144453081e+01,7.737206415202795284e-01,5.357139998851636165e+00
1.575624381027620657e+01,2.320921133954811921e-02,8.034531529651751214e+00
-5.464008372818589976e+00,1.431335996298432667e+00,1.289983136214615556e+01
-7.286318007687246023e+00,1.761721460863065358e+00,1.274972510271997095e+01
-9.148962323901695726e+00,1.843002324161514549e+00,1.232296141990357441e+01
-1.089993155049964813e+01,1.666821866331332558e+00,1.156662576711878643e+01
-4.001760459668133763e+00,-2.160308020005117235e-01,1.308658789920757215e+01
7.255709624018258808e+00,4.634369567864382589e+00,1.570237384665394487e+01
5.168136961464799839e+00,3.889406589800181280e+00,1.687818876683023106e+01
3.381646234747375246e+00,3.162204947006461708e+00,1.697148942767660174e+01
1.801466942731106968e+00,2.120348314209692830e+00,1.636335762101425217e+01
