2.206654360758692945e+01,2.936249463474911181e+02,-1.249550097008014760e+01
2.022866758527667486e+01,2.951757349684239671e+02,-1.338735227112038473e+01
2.416717062645876268e+00,2.967063001887482869e+02,-1.969441640158726159e+01
4.731081279260180850e-01,2.971045375757711327e+02,-1.981971692901341697e+01
5.715664603221995321e+00,2.982779939152826501e+02,-1.927228229472722631e+01
3.634066389506678263e+00,2.985265718323536248e+02,-1.966063903458157114e+01
7.687545534549521165e+00,2.986716817960530648e+02,-1.876889677096430376e+01
1.420518085572096112e+01,2.974110669181753792e+02,-1.624580611585292189e+01
1.195955731671602251e+01,2.976946755373029987e+02,-1.723661987599064105e+01
1.650823868595547594e+01,2.972053235307194541e+02,-1.514928703898007711e+01
1.077064434582718633e+01,2.998787115686988045e+02,-1.770330782379936352e+01
8.757323824036461701e+00,3.002889123114503604e+02,-1.843539047476826909e+01
2.357454176813408253e+01,2.887377893874269148e+02,5.494411501429484979e+00
2.674814461191017045e+01,2.905238375274471423e+02,4.764110996439598011e+00
2.847641559166291358e+01,2.897895695927062434e+02,3.797596626443361600e+00
3.020403385066878599e+01,2.895099317904384293e+02,2.238600838433804086e+00
2.466644072637699736e+01,2.908010350821197108e+02,5.380963599463933988e+00
3.136513897955902763e+01,2.878667106548337529e+02,-3.923551534251217277e-01
3.137796814069401563e+01,2.900006126139725211e+02,3.465208436574052087e-01
3.132190477707837317e+01,2.889841214845569652e+02,-2.817815324964435320e+00
3.040342662416745867e+01,2.902425949453244698e+02,-5.365812516900072993e+00
2.891688897301730776e+01,2.911694835697277881e+02,-7.540854855813153179e+00
2.731862834888694636e+01,2.920131589343274072e+02,-9.197847039349948517e+00
1.529390371690470118e+01,2.857650105042661721e+02,7.967634319509457441e+00
1.834937473016093534e+01,2.863211556006086767e+02,6.708992738520020538e+00
1.672138933394366944e+01,2.871234763893638160e+02,7.504501709792723574e+00
-8.558414033417065525e+00,2.985519838518578695e+02,3.652978562708710797e-01
-2.796559154647802359e+00,2.963883288694691487e+02,8.615110021840763466e+00
-5.323769882193850833e+00,2.985779676929649327e+02,6.346696219874338851e+00
-6.317450226465275875e+00,2.983159488777520778e+02,4.730881817387682986e+00
-7.250028283629617931e+00,2.996599860662328751e+02,3.547066847943170842e+00
-3.984267766275586098e+00,2.984543055084639605e+02,7.937035080982582258e+00
-1.008590994723064682e+00,2.959940933991430825e+02,1.010005052000122561e+01
-8.140684284017005723e+00,3.001176789567569472e+02,1.779764444696525061e+00
2.326625920821530968e+00,2.949462926989464222e+02,1.164948110819195648e+01
6.517267602381906499e-01,2.966011053616624054e+02,1.128928076670028702e+01
7.978492802088705815e+00,2.913029954004084061e+02,1.113027709134368592e+01
1.075556982531359296e+01,2.887795795868125879e+02,1.020251393774282889e+01
1.003557411415796707e+01,2.911391589305752632e+02,1.071432198120677270e+01
4.056995548250924344e+00,2.959062098100037019e+02,1.215763665424042017e+01
5.676373501108813002e+00,2.945399478169980512e+02,1.195923203171199845e+01
7.362244548051808835e+00,2.934050243573683474e+02,1.159116386525499820e+01
1.282341921995179490e+01,2.883573433317538388e+02,9.456671303033331810e+00
1.480484166932279066e+01,2.880022296185828168e+02,8.534753536301280974e+00
-7.023890626201101384e+00,2.979838969387519114e+02,-1.788860993213020123e+01
-7.925554333248101102e+00,2.973160251686836091e+02,-1.681909411638196872e+01
-8.909722044938014562e+00,2.977932165555556026e+02,-1.534932493003356058e+01
-1.013072974494710365e+01,2.998101809021383133e+02,-1.250747657569269222e+01
-9.630317581024186779e+00,3.002509627877009279e+02,-1.457709517225313078e+01
-1.032774995799292839e+01,2.992795982390214817e+02,-1.022624439665162299e+01
-1.055156515077525370e+01,3.009305527843614527e+02,-8.634974050036859694e+00
-1.034508208486892045e+01,3.008365275411817379e+02,-5.952098961265079424e+00
-9.881099826325645097e+00,2.999102113424630147e+02,-3.773906854708513947e+00
-9.307026454605782817e+00,2.991844833229932306e+02,-1.619950530477751727e+00
-1.369762721219894175e+00,2.977394806802022913e+02,-1.981454574774019761e+01
-3.126662601428997768e+00,2.983339726261266946e+02,-1.966464973667398297e+01
-4.788582767375711313e+00,2.988678288263018885e+02,-1.928968064201330179e+01
-6.306006653758846170e+00,2.994800570253695469e+02,-1.868380380803600360e+01
2.002375474648730957e+01,2.877646510626879035e+02,6.350688197414594782e+00
2.155553215043789095e+01,2.889999146113815982e+02,6.056889824662155419e+00
2.566600466560349503e+01,2.930201775001650617e+02,-1.042167981187726866e+01
2.431975582067742891e+01,2.949419670529771338e+02,-1.127784685476940396e+01
1.887430488491602532e+01,2.972616705318725963e+02,-1.400987917107190839e+01
2.238113696418444221e+01,2.958417190129493974e+02,-1.231401830158580779e+01
2.118397618063575649e+01,2.977481445873305574e+02,-1.286394263312151409e+01
1.532061295869048934e+00,2.989219573276201345e+02,-1.988312991864427204e+01
-3.849475891749136736e-01,2.994119110702156377e+02,-2.000315864072347694e+01
4.696197186147173852e+00,3.005368451805503582e+02,-1.952549464560883763e+01
6.609967732948462071e+00,3.005762576055383875e+02,-1.907823622079916248e+01
2.643871482487192281e+00,3.007377331328964374e+02,-1.986064201409424612e+01
1.510292444230789499e+01,2.994576155311797834e+02,-1.578836466984518694e+01
1.291561402744090259e+01,2.996742131680338161e+02,-1.680837789259364001e+01
1.740714359417386703e+01,2.993572896320192172e+02,-1.466729305922852689e+01
9.762338750730293668e+00,3.022314528792002193e+02,-1.806610173347695536e+01
1.180257697137368922e+01,3.020277166126084012e+02,-1.723785386747012893e+01
7.696991793951568184e+00,3.025359664809047331e+02,-1.875977238870773078e+01
2.245979426059281181e+01,2.910109508770070192e+02,6.015558635399672838e+00
2.579830994958017598e+01,2.928187304430039148e+02,5.361618346596802809e+00
2.789909215032076872e+01,2.924869444309745177e+02,4.603261230474966936e+00
2.937851647283953227e+01,2.914297499357883794e+02,3.444553536509232572e+00
3.079029311704458394e+01,2.918006940513893142e+02,1.939946219171602593e+00
2.354022513714939890e+01,2.930268213610585804e+02,5.961712213080077483e+00
3.158198012313586389e+01,2.926559302137445115e+02,1.025422852102160221e-01
3.158462825953036912e+01,2.911270031837116221e+02,-1.988764363048421302e+00
3.098007065938733007e+01,2.923398453654090190e+02,-4.254958492265631165e+00
2.977681610767432119e+01,2.930662217689837235e+02,-6.502465044146777728e+00
2.823647100030004964e+01,2.938927003446158892e+02,-8.353519683731736478e+00
2.648257824167055574e+01,2.948433649744427498e+02,-9.854992823278674763e+00
1.831857389920498491e+01,2.889252170871702674e+02,7.094064264359349892e+00
1.634617737974956952e+01,2.895237709914268294e+02,8.043163645315072330e+00
-8.984174290567409571e+00,3.009550510975843167e+02,-7.643567018281771652e-02
-2.407895466932316708e+00,2.982621382597355932e+02,9.454636810576637629e+00
-6.445686425245710893e+00,3.007663736042227924e+02,5.358662294692656758e+00
-5.211328335810115675e+00,3.006962943654654055e+02,7.163093724281253571e+00
-7.633122680688629202e+00,3.019332739137739168e+02,3.542213985744993465e+00
-3.745867555250171677e+00,3.004329557370360817e+02,8.768667783883920208e+00
-7.903780125088104569e-01,2.983943497850561926e+02,1.081839614442381503e+01
-8.489826365680869458e+00,3.023878743747069393e+02,1.702666817053057002e+00
2.444601980819079756e+00,2.974060606761646000e+02,1.215910076306030163e+01
9.056823322678972943e-01,2.990063251669374722e+02,1.189407873824126227e+01
9.405349348627165540e+00,2.936257387031674853e+02,1.127872355626590917e+01
1.217121109022397363e+01,2.906426130710664211e+02,1.003835344381193551e+01
1.159355470212257444e+01,2.928926628854494538e+02,1.056969442003217807e+01
4.297358597648958778e+00,2.984332199802973378e+02,1.268097034228040343e+01
5.985605285150793264e+00,2.969446982122383929e+02,1.239571021833052100e+01
7.730164698234890608e+00,2.955727136214289885e+02,1.195233611263370932e+01
1.422609059036881263e+01,2.902075277278281646e+02,9.115725944482925058e+00
-7.849062295177894555e+00,3.001562242138625152e+02,-1.762973867038986242e+01
-8.677541450993711436e+00,2.994810901466530595e+02,-1.632903825710129553e+01
-1.063202957728573494e+01,3.016497276011646136e+02,-1.084370749592667948e+01
-1.039637262138857920e+01,3.021384162755141460e+02,-1.295984665481773135e+01
-9.131506164570627249e+00,3.016132678683393920e+02,-1.626110516818973650e+01
-9.984575287061275617e+00,3.028023410661464823e+02,-1.477953063186773619e+01
-1.099193415061861856e+01,3.035487575451655289e+02,-9.293363002860246525e+00
-1.074820394323641892e+01,3.026124493067125059e+02,-7.350692699266943464e+00
-1.074700037701331468e+01,3.037894778231270152e+02,-5.735204893771140178e+00
-1.026729824580960582e+01,3.022949349698951664e+02,-4.084787504349179699e+00
-9.691969652244480926e+00,3.014665481389396859e+02,-2.045290586980897274e+00
-2.155068836083286143e+00,3.000592486308127604e+02,-1.997933702552199620e+01
-3.846038170922740917e+00,3.006430997731177968e+02,-1.976649416701020456e+01
-5.439331604717722257e+00,3.011459613105153039e+02,-1.935076547048821283e+01
-7.036406078883018722e+00,3.016500738731945148e+02,-1.862935845510056510e+01
1.998159967466745002e+01,2.907076070950981830e+02,6.736285188629111076e+00
2.557766369277036844e+01,2.970578232781154497e+02,-1.045296190289989369e+01
2.354752405777229285e+01,2.977059251898326693e+02,-1.164863339492571725e+01
1.978264620548649688e+01,2.994970530259290626e+02,-1.348191332259365538e+01
2.242060006750165613e+01,3.000630154149791338e+02,-1.213184441519669932e+01
6.329681813142116198e-01,3.012028554364005117e+02,-2.006504341482065712e+01
-1.184253255620006939e+00,3.017862981037276882e+02,-2.016407601725751420e+01
5.731907480143163980e+00,3.028073014616637693e+02,-1.930239491247323969e+01
3.781654958671744282e+00,3.027446429311333986e+02,-1.971893208487726667e+01
1.786074110397557035e+00,3.029362719555554690e+02,-2.004759112096603957e+01
1.604032276558807268e+01,3.015228335641910462e+02,-1.525825650226867225e+01
1.378849955927275772e+01,3.017124401773972409e+02,-1.635066921629821479e+01
1.830995846151255790e+01,3.015745672837388724e+02,-1.413236247621152586e+01
1.075725168831765899e+01,3.041996086648981645e+02,-1.763708969095074508e+01
8.642856170896280332e+00,3.045061802993529909e+02,-1.840344302087519424e+01
1.276248242655258736e+01,3.043541367863774099e+02,-1.674705009456413052e+01
6.828649720969181658e+00,3.050231875721061101e+02,-1.898801417106608369e+01
2.123382998811341338e+01,2.929605940614211477e+02,6.601683028573420486e+00
2.465836109811458599e+01,2.950198985127591982e+02,5.878742082409472047e+00
2.683854238256657965e+01,2.947927278839013070e+02,5.313499860419838683e+00
2.863245486620159497e+01,2.946871730831932723e+02,4.569208294834023576e+00
2.991229285092155976e+01,2.934567468398835217e+02,3.438520366846177012e+00
3.113855841633056798e+01,2.944005147787235046e+02,2.071559138314071902e+00
2.244405838817576537e+01,2.951769048609388619e+02,6.506637483515271825e+00
3.188377319623045736e+01,2.951457171410514206e+02,1.855084660591934664e-01
3.163146097683402047e+01,2.939562728538843430e+02,-2.256976256401610925e+00
3.074983837709034873e+01,2.949249734559215312e+02,-4.918838130487483085e+00
2.931948571603778930e+01,2.956858152352418188e+02,-7.155864490428200497e+00
2.761600894147181862e+01,2.965082060958997658e+02,-8.944600461581039497e+00
1.780606958034361398e+01,2.912820852162261076e+02,7.627433066717262733e+00
1.571170832299512199e+01,2.917783949137995023e+02,8.657850909138851137e+00
-9.361462876089213125e+00,3.032768212274177699e+02,-2.898299992037749462e-01
-2.178746662385055544e+00,3.004138613822432262e+02,1.025812374235025715e+01
-7.106070735512318493e+00,3.032126805930274713e+02,4.977497544739676982e+00
-6.130617843331798156e+00,3.029259991352880661e+02,6.619471531642695084e+00
-4.894940788124308995e+00,3.027089735016797931e+02,8.216397726656119005e+00
-8.198987241024127570e+00,3.044150587237209606e+02,3.065117709350502651e+00
-3.422925383866889604e+00,3.023686067397330248e+02,9.629445821824916152e+00
-5.321712316151661071e-01,3.007340222451915679e+02,1.150617564348161892e+01
-8.980903809326257203e+00,3.045195260145470684e+02,1.238650315384631995e+00
2.686934295503180081e+00,2.997440956042970583e+02,1.269435916603756453e+01
1.062085933030559204e+00,3.014006645705051142e+02,1.249443324646399844e+01
9.599060522583188870e+00,2.963785954855574687e+02,1.174861342849119694e+01
1.108584763762732095e+01,2.949951961894419696e+02,1.108767502360426604e+01
1.357234970613717451e+01,2.925341871691435927e+02,9.754066329826411419e+00
1.304136508716377207e+01,2.950146177876409865e+02,1.036593149506300904e+01
4.680470674804289466e+00,3.009527978526082279e+02,1.323439698082589544e+01
6.271587583651230702e+00,2.993352475004852522e+02,1.285549044568959687e+01
7.984007843922668712e+00,2.979671534187045268e+02,1.237855778140150420e+01
-8.411519796570281926e+00,3.024802019838995761e+02,-1.762354233328383657e+01
-1.098523698315676000e+01,3.040997649368058546e+02,-1.126344720977521519e+01
-1.074628999872778934e+01,3.045556633061896719e+02,-1.319546457931227934e+01
-9.527549290944040905e+00,3.040296650828999532e+02,-1.637763560654273221e+01
-1.036457294113812466e+01,3.052229855156561484e+02,-1.495401973680541374e+01
-1.116947914139750253e+01,3.051982188786875554e+02,-7.504766047772577053e+00
-1.143318083123197937e+01,3.060598838496274539e+02,-9.316157922125299251e+00
-1.112857005154391032e+01,3.064009490529256254e+02,-5.711552665132415996e+00
-1.060873240767426751e+01,3.048933881756916549e+02,-3.943104189980388696e+00
-1.002174552481994851e+01,3.037287871156066217e+02,-2.160901044949937955e+00
-2.837635551799580824e+00,3.024491737455029465e+02,-2.012321679268338670e+01
-4.540290694202393951e+00,3.029030237639073562e+02,-1.988252213667387736e+01
-6.153070325868976731e+00,3.033127514271022278e+02,-1.942988775617872221e+01
-7.633275247966924582e+00,3.038630023466464536e+02,-1.871286995993568780e+01
1.917024100392779218e+01,2.931437866156924770e+02,7.320456746253256597e+00
2.690548515517581052e+01,2.988540041913472010e+02,-9.482810689474419519e+00
2.480418715527377316e+01,2.995285103255998820e+02,-1.087158040693887529e+01
2.049360677516833462e+01,3.016062146961492658e+02,-1.303268060784153448e+01
2.407704205101247652e+01,3.018356422167995561e+02,-1.119421327728921156e+01
2.203296369091025042e+01,3.029074923878100094e+02,-1.219606698481743123e+01
-1.618860743214511899e-01,3.035289824118176512e+02,-2.023446889004686966e+01
-1.755607696598673328e+00,3.042852904068719795e+02,-2.033726233021878826e+01
4.834936271557275234e+00,3.049643304962952470e+02,-1.951998505567553366e+01
2.846763077815367637e+00,3.048797431005921226e+02,-1.992815161948397673e+01
9.659516583288976221e-01,3.051033217676481968e+02,-2.021709414180531894e+01
1.702395524139701166e+01,3.036087951310798303e+02,-1.467327310012898067e+01
1.470761440870629855e+01,3.035631419242533298e+02,-1.583417481252826065e+01
1.941835892543217312e+01,3.038965770192180003e+02,-1.344928884721895201e+01
9.627433698122281669e+00,3.062537659926944116e+02,-1.803155001537965774e+01
1.147378086683812626e+01,3.065165640846601036e+02,-1.728584797559398822e+01
7.872165841929451346e+00,3.073353394055258718e+02,-1.863243172582613738e+01
1.339864221836894131e+01,3.067908534343058591e+02,-1.636913255796444844e+01
1.526171751069289684e+01,3.054899119635549596e+02,-1.549943317945827914e+01
5.823050852945797828e+00,3.071865628896691760e+02,-1.926596576847731512e+01
2.031771091759376091e+01,2.953093449747423165e+02,7.211351864306855930e+00
2.599065225250378930e+01,2.969002732283861405e+02,5.747071642844060690e+00
2.369990113705389945e+01,2.972023887921365599e+02,6.319258540239110822e+00
2.822912763318345952e+01,2.969224063752924963e+02,5.029159687666624023e+00
3.009657164254723583e+01,2.957986742808636791e+02,3.653295496505876372e+00
3.137582405974723088e+01,2.970295995413640640e+02,2.456852399734657411e+00
2.153116057729010180e+01,2.974347284559470950e+02,7.052675910338288112e+00
3.204914710508631259e+01,2.972809471709948070e+02,8.633864474681729462e-02
3.162364020017518129e+01,2.966216807249235217e+02,-2.722945106082432787e+00
3.044106852171449162e+01,2.973738096302545273e+02,-5.519973741106136700e+00
2.879460355283891104e+01,2.981842682439583996e+02,-7.758453554695638132e+00
1.709459120377947983e+01,2.935872589838257340e+02,8.274326101626257923e+00
1.507994125801853968e+01,2.940144489598570203e+02,9.269072673906681104e+00
-9.685844617617526353e+00,3.058877072565276762e+02,-2.694929236702705566e-01
-1.813402748559571620e+00,3.025661541720770060e+02,1.105885287916922977e+01
-7.705239281241752280e+00,3.054245778821210138e+02,4.593223846990923676e+00
-6.819738802108286535e+00,3.052878483776605663e+02,6.263101384713579023e+00
-5.820165823504087399e+00,3.050977020017919585e+02,7.796503019589529515e+00
-4.534392278566546253e+00,3.047212993194024193e+02,9.228695158246438268e+00
-8.453808908204717198e+00,3.070267198752357558e+02,3.406922779369168097e+00
-9.102659425124329573e+00,3.066261662402626484e+02,1.677938088418201801e+00
-3.144534729146432284e+00,3.042991330650874602e+02,1.044495758016109477e+01
-2.933539385443655334e-01,3.031581360265006424e+02,1.224560836687207654e+01
2.785902591704493503e+00,3.018861932700980333e+02,1.318891853452148410e+01
1.499848629595771143e+00,3.037894103436941009e+02,1.323131715827529575e+01
1.169555236248652719e+01,2.971424248606297169e+02,1.123185569076254708e+01
1.009035844656634850e+01,2.987236487068074098e+02,1.202138402428735020e+01
1.462546468846952941e+01,2.961866367016255595e+02,9.830237363796573646e+00
1.351594620569407823e+01,2.978766842533943873e+02,1.063283853151843417e+01
5.632564733227204634e+00,3.031506617856376806e+02,1.367085874101314502e+01
3.697239866210959569e+00,3.035232616850086629e+02,1.371392170137159638e+01
6.892737672112516201e+00,3.015049883115975717e+02,1.321833614143492497e+01
8.532033296593969141e+00,3.002515858629663512e+02,1.267948628558032453e+01
-8.901941186500177849e+00,3.048864956903425423e+02,-1.769924867393146428e+01
-1.140866239112939340e+01,3.064974704024716061e+02,-1.133847549639843066e+01
-1.116402349440080499e+01,3.069387917196476110e+02,-1.325414247289129577e+01
-1.000506032542790535e+01,3.066368613748108487e+02,-1.649172588231006387e+01
-1.079805995498548654e+01,3.074504164148960967e+02,-1.498326433517355127e+01
-1.165111529289575287e+01,3.079921257770610623e+02,-7.581600945504462175e+00
-1.187204459126152400e+01,3.084817884587139929e+02,-9.805685562351371232e+00
-1.145335036703158238e+01,3.088183840551578783e+02,-5.285105401107941248e+00
-1.091346959241345616e+01,3.073775222768142612e+02,-3.683025861120029276e+00
-1.032194502026920446e+01,3.059392633604513776e+02,-2.127681971245237946e+00
-3.509872363233666803e+00,3.047118423868462855e+02,-2.025935610175906731e+01
-5.155507429792505647e+00,3.051193383725133117e+02,-2.002264818230062104e+01
-6.715156161250144251e+00,3.055471762044039679e+02,-1.956714879940386709e+01
-8.115851545198998096e+00,3.061214662622701894e+02,-1.886513809082534721e+01
1.834270174735556935e+01,2.956104925265586871e+02,8.008142955730862766e+00
2.818990884989747059e+01,3.005712227744919574e+02,-8.358675237113912360e+00
2.626028971140109647e+01,3.012271580136472267e+02,-9.864767767331315440e+00
2.571451384582451638e+01,3.036040298792954104e+02,-1.015837994618146212e+01
2.368978172618932732e+01,3.044128364552514086e+02,-1.127243254898688640e+01
2.144926770777649949e+01,3.052612070712175978e+02,-1.238407442566185424e+01
-5.829715344651305031e-01,3.062298240163873402e+02,-2.039345580592495821e+01
-2.392972599337095829e+00,3.065526942231172711e+02,-2.047074923373140365e+01
3.760714245389372934e+00,3.069962789647193517e+02,-1.978115557999537799e+01
1.740879007998401562e+00,3.069448733883957630e+02,-2.016839198156042556e+01
1.740583255278842501e+01,3.058275318673477727e+02,-1.440244063165125965e+01
1.936724126971233773e+01,3.065007572118713028e+02,-1.336499431162266660e+01
9.851198614255650909e+00,3.083836342675792821e+02,-1.786841717933333484e+01
1.188279880422638257e+01,3.087871750144565226e+02,-1.702169108850745971e+01
8.371324928866357595e+00,3.099624882146514437e+02,-1.842888970396515447e+01
6.616383909075210568e+00,3.094236633857075276e+02,-1.900669246944617186e+01
1.377563316718374153e+01,3.093753448078232395e+02,-1.610387910912157849e+01
1.536809073006170223e+01,3.077075528657011887e+02,-1.536067822828655238e+01
4.504847409986162177e+00,3.092009778646016116e+02,-1.962630516126534275e+01
1.943105938566949575e+01,2.977177211726255450e+02,7.854412228340430957e+00
2.497193312551294042e+01,2.990964080723156258e+02,6.164868285117863778e+00
2.710644229207523992e+01,2.987303988545087350e+02,5.593350290288931603e+00
2.277765425210559869e+01,2.994561509931242540e+02,6.850779473075395920e+00
2.882238575619419407e+01,2.998092886880439778e+02,5.064865495902697745e+00
2.988705826784341824e+01,2.979311455393742563e+02,4.218000622956168399e+00
3.089099154811101755e+01,2.995245237191792285e+02,3.564700371331873896e+00
3.197027203225980685e+01,2.992231834963806705e+02,1.479487498178052363e+00
2.059310398424589650e+01,2.997332677752452810e+02,7.668132776696479525e+00
3.201981629861197831e+01,2.992599225553516362e+02,-1.325112326151566933e+00
3.128470793973019681e+01,2.991463614517273299e+02,-3.920698012223608586e+00
2.992580538438183524e+01,2.998277861381127423e+02,-6.395300006007742510e+00
1.644862405703111818e+01,2.959240354013151659e+02,8.898810813321539115e+00
-1.042125738999487794e+01,3.080381969118464554e+02,-1.492335762929613452e+00
-9.865572093782006391e+00,3.083749173741710479e+02,3.262480962620060154e-01
-1.909212465295541783e+00,3.049137006139864638e+02,1.161333725184074694e+01
-7.673358324593653634e+00,3.074633526183016556e+02,5.363399733307318229e+00
-6.717522625835709249e+00,3.074670117379913563e+02,7.214151236497073683e+00
-5.373950760593128706e+00,3.069436380833113844e+02,8.975682828355772358e+00
-3.718850179770712749e+00,3.064858457769652773e+02,1.054154134274533305e+01
-9.278174594415755649e+00,3.089088561938304451e+02,2.133351954896411939e+00
-8.617455249149987395e+00,3.091672479187690783e+02,3.852677403980905524e+00
-4.498054885984070772e-01,3.053641744160627240e+02,1.272365136991313506e+01
9.986079705961623532e-01,3.059929081396350625e+02,1.361117317660603021e+01
2.838284455744230605e+00,3.055065559664066654e+02,1.400475419557584900e+01
1.213176900703029837e+01,2.994941381825274220e+02,1.149046775895531525e+01
1.070455285037610871e+01,3.010266011361101164e+02,1.226239187065785075e+01
1.553435628748829345e+01,2.982548476633576229e+02,9.719363779204666542e+00
1.432559995711178402e+01,3.000945456985412534e+02,1.065663664870654692e+01
4.934057764777918464e+00,3.053052470247256451e+02,1.413835876558160010e+01
7.786774108254300941e+00,3.035897200739138952e+02,1.345843007961373772e+01
7.030973305593962941e+00,3.052850488947818235e+02,1.393870029521942300e+01
9.261561277409880333e+00,3.024797051038956397e+02,1.291694638788218441e+01
-9.295947827053304025e+00,3.071217608123182572e+02,-1.789662374509389053e+01
-1.181056297723285908e+01,3.089296647267337903e+02,-1.191118248033591698e+01
-1.152792653829751401e+01,3.093325164924981436e+02,-1.392510735005554068e+01
-1.008490228463975313e+01,3.091081736352746248e+02,-1.753067548249040897e+01
-1.087682229863226269e+01,3.092050009524764391e+02,-1.593514253242556578e+01
-1.220847752964625599e+01,3.105940314104100821e+02,-8.743363831885190507e+00
-1.198424178796479111e+01,3.105020405184711763e+02,-6.726576763107729562e+00
-1.234215383122708332e+01,3.110092404148607557e+02,-1.076515752773733681e+01
-1.172895739747498567e+01,3.111821132301882358e+02,-4.488221724987880634e+00
-1.111206277845156620e+01,3.096215242956464522e+02,-3.007191752966264175e+00
-4.104563054393855381e+00,3.070108834138475800e+02,-2.042069477458649374e+01
-5.802477296163131015e+00,3.074145974161620529e+02,-2.016544684718273572e+01
-7.381661403580951131e+00,3.078477613917930853e+02,-1.968981937858286813e+01
-8.780282055603743530e+00,3.084800196140820390e+02,-1.890369762788962049e+01
1.745140305914220846e+01,2.980592976967813001e+02,8.746969910006168192e+00
2.765043737840957760e+01,3.029261057526034051e+02,-8.788979750201299623e+00
2.941338218662432169e+01,3.022010282763945952e+02,-7.115545760586569735e+00
2.730176423051565138e+01,3.053647605284193105e+02,-9.100622911702563655e+00
2.540390836064579361e+01,3.060306211112850292e+02,-1.028534023914182605e+01
2.330778412905817021e+01,3.068048035537622127e+02,-1.140635423917044555e+01
2.121302673958467722e+01,3.078515749413080584e+02,-1.241835358736505590e+01
-1.349858645060688644e+00,3.085106611217749446e+02,-2.060246060560230319e+01
4.455908285435867811e-01,3.082828006971922150e+02,-2.040016673030746830e+01
-3.069324970527652852e+00,3.088902429774768734e+02,-2.068486141258759758e+01
2.637460250194578748e+00,3.089374630745945751e+02,-2.004873773808233040e+01
1.736971269025626441e+01,3.082036619768967398e+02,-1.432706684846493417e+01
1.926573680780597897e+01,3.091462954714953639e+02,-1.334361783635794652e+01
1.043921826858760937e+01,3.105527513288500927e+02,-1.761531570987207118e+01
1.248059248246106279e+01,3.111121244074017227e+02,-1.670186417275658641e+01
8.962722401076824497e+00,3.121237645311188089e+02,-1.820376409268205720e+01
6.959702204797316938e+00,3.121298103815166769e+02,-1.892185836815469457e+01
5.285179083987856075e+00,3.111190573820445024e+02,-1.942958584607798400e+01
1.562032470090561986e+01,3.101853814004861647e+02,-1.516962534946441110e+01
1.444576421144688538e+01,3.120261706012071841e+02,-1.571876312285080957e+01
3.222751742839655265e+00,3.113600127083442999e+02,-1.999798548948939469e+01
1.848942825284965608e+01,3.001583674324191975e+02,8.608893001256724631e+00
2.428821567823941407e+01,3.012614572775348165e+02,6.558696468413418579e+00
2.659269406718053830e+01,3.008381802992503822e+02,5.899159260015142792e+00
2.200141445636613824e+01,3.016444302094439536e+02,7.381909842486447104e+00
3.009993839193491993e+01,3.015938255505984671e+02,4.533108686894927075e+00
2.823711177520345217e+01,3.022492146719565085e+02,5.541278061227568941e+00
3.174903774342285701e+01,3.014081977554638456e+02,2.667327070892046237e+00
3.227584213644681199e+01,3.014243550195182593e+02,2.782688298721218700e-01
1.976392165044036986e+01,3.019593339183888361e+02,8.330318352361313572e+00
3.189299603184499077e+01,3.014576763930422771e+02,-2.520139305037630173e+00
3.089785740680558135e+01,3.015784215487439610e+02,-4.932241033641435735e+00
-1.067235900475121824e+01,3.103671773374886698e+02,-1.025484514099161970e+00
-1.007781274296058527e+01,3.107218958988132158e+02,8.572080901223841920e-01
-2.005064864153411897e+00,3.070204990659951250e+02,1.214302214360444765e+01
-7.916083711833673320e+00,3.095902213091797535e+02,5.583772813478532271e+00
-7.195393904089950610e+00,3.098094740183825593e+02,7.083350795441504033e+00
-6.216047509576554830e+00,3.091994001005115820e+02,8.641337252777653077e+00
-4.902709075806319206e+00,3.088001478327972222e+02,1.008623360560927296e+01
-3.516551248851992995e+00,3.084783881284737959e+02,1.130631343866964755e+01
-9.482624900146646496e+00,3.111703625888534361e+02,2.622406463202040072e+00
-8.796825986360136795e+00,3.113242016363057019e+02,4.311561403400048675e+00
-4.065324868295885352e-01,3.077472541743194370e+02,1.340678089285052010e+01
1.818858708985619188e+00,3.076291652908380456e+02,1.428858382725757536e+01
3.961462628528323648e+00,3.073510597242956806e+02,1.456622019429297765e+01
1.289510868075650052e+01,3.017288398408728654e+02,1.159465339153138430e+01
1.132597763780879419e+01,3.032950724460951051e+02,1.245228451822392479e+01
1.650327808709349497e+01,3.003776789593229068e+02,9.606641241820319976e+00
1.521115075428224017e+01,3.021689885561535789e+02,1.059200241326288072e+01
6.184193944753965333e+00,3.071723563042386900e+02,1.445092001477603461e+01
9.679256880863881918e+00,3.048745399437323726e+02,1.323002282403263763e+01
8.542651099861256370e+00,3.067503297821882029e+02,1.392328739492427303e+01
-1.222118495086769130e+01,3.113188310708776498e+02,-1.278903954393258147e+01
-1.185135374354971205e+01,3.113948865999299187e+02,-1.474445620721962058e+01
-9.478911053202947912e+00,3.106305695785944181e+02,-1.892730215382976411e+01
-1.057514613510083734e+01,3.113179718006742291e+02,-1.784564533165386990e+01
-1.126440133169807822e+01,3.113391115830111744e+02,-1.643014521323789268e+01
-1.285200640658389304e+01,3.132514650455605079e+02,-9.888483207432429367e+00
-1.262186520716493376e+01,3.129228517143581598e+02,-7.913833416731577586e+00
-1.228972022837494649e+01,3.127642475147652021e+02,-5.871504018414427151e+00
-1.286653816803370276e+01,3.134301638311310967e+02,-1.186656319488317024e+01
-1.218846361107129184e+01,3.139922610320710987e+02,-4.121523039578235625e+00
-1.143382760745274851e+01,3.121364953471231161e+02,-2.553500137296950356e+00
-4.832424288823290226e+00,3.093469592621643756e+02,-2.062771643546923528e+01
-6.523011008549986833e+00,3.097616880954357157e+02,-2.034985806193938984e+01
-8.085222070938325345e+00,3.101890916052494731e+02,-1.981620338978800078e+01
2.890970994236162284e+01,3.045280876686865668e+02,-7.747258698766510854e+00
3.050865250880250201e+01,3.038557611917962049e+02,-5.833230146411093386e+00
2.877759837718350155e+01,3.071778171750259503e+02,-8.069363569237378186e+00
2.712243878459825908e+01,3.077233639557673541e+02,-9.299443170721545471e+00
2.509854044652907135e+01,3.083846931276189025e+02,-1.044663351093828751e+01
2.292680572208565337e+01,3.093051960459594625e+02,-1.155660294028369961e+01
2.080671555520666516e+01,3.106208514206838913e+02,-1.256216519422115141e+01
-3.016630025899686984e-01,3.104679883044608459e+02,-2.062633883175070082e+01
-2.022840347912847392e+00,3.107688074880662157e+02,-2.084794890643774323e+01
1.460414398890875987e+00,3.103027587151210014e+02,-2.033650406270380273e+01
-3.798744037687640684e+00,3.111936055080568053e+02,-2.094695826561502017e+01
1.743841303389883279e+01,3.106815494885589715e+02,-1.421639529494710175e+01
1.881410304839289438e+01,3.121227325815910376e+02,-1.351354914661876094e+01
1.111038052944839194e+01,3.126962574542300786e+02,-1.731925412764944383e+01
1.283705750015589331e+01,3.133905298437391025e+02,-1.649234953314241636e+01
9.876904810717412886e+00,3.140562718061881355e+02,-1.783781853550314622e+01
8.031411429081089182e+00,3.141776714351807982e+02,-1.857207304942991044e+01
6.191265020919139772e+00,3.144932436699288019e+02,-1.923243264755253534e+01
4.697039731486881919e+00,3.131130508722343393e+02,-1.965950523974914432e+01
1.654308151928992743e+01,3.129798734501770809e+02,-1.464670294664655614e+01
1.493347079677309353e+01,3.143221515019147887e+02,-1.544704975611286102e+01
1.138164835755034687e+00,3.123121407383996484e+02,-2.050936841031629854e+01
2.675604789764285840e+00,3.137002245964536087e+02,-2.023481912041917496e+01
1.752270168228391256e+01,3.025651381017328276e+02,9.500433834379300890e+00
2.348223082388786409e+01,3.033312238995427492e+02,7.004627803910721262e+00
2.581428999272419134e+01,3.029409248718883987e+02,6.307945708822163766e+00
2.132996883182726577e+01,3.038304387589790849e+02,7.967829453572811360e+00
3.120055450101110495e+01,3.032391285775427718e+02,3.898351228001885715e+00
2.959727885955236815e+01,3.042717856907780742e+02,5.177931134476200015e+00
2.739790184821334051e+01,3.044101161380901317e+02,6.045699455804687261e+00
3.232512341976008940e+01,3.037234469221321547e+02,1.849374840865849023e+00
3.237890995507794401e+01,3.035026034068175704e+02,-1.108307655102560574e+00
1.931046304187363916e+01,3.040478697002478725e+02,8.888462190645661565e+00
3.170613846037582562e+01,3.038490358945876437e+02,-3.595167216961397738e+00
-1.091946764985363671e+01,3.126264636778946056e+02,-4.537511570726024956e-01
-1.038523777971863282e+01,3.130571780369629096e+02,1.303009004175834207e+00
-2.379243771008383135e+00,3.092852762478232194e+02,1.249446170897545727e+01
-8.078726211500164567e+00,3.119339549786791963e+02,6.052649500269211558e+00
-6.961009458193256449e+00,3.114936968779586550e+02,8.017451486637568792e+00
-5.704333386160016062e+00,3.110136926524311320e+02,9.746376883209038056e+00
-4.084827688958519332e+00,3.107668488192984455e+02,1.138678095083306374e+01
-9.823375587787753105e+00,3.134597690040496900e+02,2.939880278502712940e+00
-9.071435587189967009e+00,3.133404560174465701e+02,4.497325961007064166e+00
-9.800268477128835087e-01,3.098828531442395047e+02,1.365775764838083006e+01
7.766592155908700335e-01,3.095496492371777322e+02,1.445391328033320377e+01
2.864197545630416286e+00,3.094090562342715884e+02,1.496099036620411482e+01
5.021573095299723732e+00,3.091709217865084156e+02,1.501231350321014091e+01
1.367057228540509506e+01,3.037750264309532895e+02,1.164569107326097530e+01
1.213207449320670150e+01,3.052877957659428034e+02,1.250925873289360979e+01
1.588484366356970590e+01,3.042621069719585876e+02,1.067034956600799411e+01
7.482284258704108737e+00,3.086720270071087384e+02,1.459136434822282880e+01
1.076208339650801626e+01,3.068659841311092009e+02,1.330449800382055159e+01
9.664774876227957279e+00,3.086900112763084394e+02,1.404146325232509795e+01
-1.265983049022117868e+01,3.134856799277568484e+02,-1.391012659976521348e+01
-1.218810005993029932e+01,3.135063375639533660e+02,-1.581204491016847413e+01
-8.978113399483728330e+00,3.124030966556957765e+02,-1.981303273219394612e+01
-1.035318067804052511e+01,3.130182739805764527e+02,-1.891848749474180380e+01
-1.149067889981165536e+01,3.134197099032377309e+02,-1.747802350343090438e+01
-1.330212042061510047e+01,3.154441102911548001e+02,-8.792369787447370300e+00
-1.345812593110228050e+01,3.156911913594395855e+02,-1.090512415212411668e+01
-1.290046247643461541e+01,3.149613599479592381e+02,-6.568354565028386105e+00
-1.340154815974420188e+01,3.155284652298431070e+02,-1.305364818608960320e+01
-1.302322201298270699e+01,3.166003864238755341e+02,-5.174472599367533121e+00
-1.243738212059547621e+01,3.159637664484687889e+02,-3.177728170494191318e+00
-1.170236945252200300e+01,3.143463453095959039e+02,-1.801237271902664361e+00
-5.603442719051226817e+00,3.116998462709032083e+02,-2.086497668297602459e+01
-7.311709352681358354e+00,3.121384057400664460e+02,-2.053472368417974536e+01
3.003786962145350259e+01,3.059531136260828816e+02,-6.689075350706999323e+00
3.134005459312577457e+01,3.060625037456159703e+02,-4.861496513807159303e+00
2.910746759018016405e+01,3.095985550904720753e+02,-8.048544504100679120e+00
3.044841079753928170e+01,3.080820902177828202e+02,-6.555622629070785301e+00
2.705142122483150757e+01,3.098363509863141871e+02,-9.453206192152311615e+00
2.479705798024559371e+01,3.106368211837171316e+02,-1.069751535412977361e+01
2.268374250624840727e+01,3.118683445710677233e+02,-1.170757641987877840e+01
2.058595041209220255e+01,3.132629518117561815e+02,-1.266750811211295158e+01
-7.269227007819125674e-01,3.127043260743810151e+02,-2.087886103528968107e+01
-2.605422782950370220e+00,3.130509894282229766e+02,-2.112029167274900132e+01
-4.510160715737534076e+00,3.135244913570850827e+02,-2.122693765536412158e+01
1.829177274701014966e+01,3.146242523070936272e+02,-1.377067779989326368e+01
1.141578375121271449e+01,3.152828919621001660e+02,-1.715402730089022754e+01
1.330827860497537785e+01,3.153653985698143742e+02,-1.626061488220067019e+01
9.439002707304865680e+00,3.159926474268373227e+02,-1.805318624521181192e+01
7.514115492407910324e+00,3.164195932568175635e+02,-1.884759855490461433e+01
5.645313535041196928e+00,3.168735795271617235e+02,-1.951150013946119088e+01
4.170850466597663342e+00,3.153115416392324732e+02,-1.989289705232490491e+01
1.654785261846751609e+01,3.158417966008720441e+02,-1.461454164410478995e+01
1.467399886421513600e+01,3.168069923098435083e+02,-1.556169467698136089e+01
7.371168819851092735e-01,3.144703452700994148e+02,-2.074881452186667730e+01
2.192540970761186259e+00,3.160216089719928050e+02,-2.050175574492820374e+01
1.784721432608233727e+01,3.050953011444042886e+02,9.827037723137282299e+00
2.277089542372041109e+01,3.054642983448621862e+02,7.594366611687674684e+00
2.486472004134533620e+01,3.050687664703702922e+02,6.806191115013640491e+00
2.043965142404548629e+01,3.059908629954175581e+02,8.751455602048284987e+00
3.152196904777825992e+01,3.053425661014542811e+02,3.938360839980948214e+00
2.841245272366122521e+01,3.064475858765025009e+02,5.926170966079851610e+00
3.034353242033337494e+01,3.068864788483833763e+02,5.203994617981390292e+00
2.625848473016179696e+01,3.064391986729895621e+02,6.579941632575502908e+00
3.255557212825891611e+01,3.063357449188883947e+02,2.114573823294964683e+00
3.267746024482097766e+01,3.053712031623696248e+02,-9.029973919520983827e-02
3.232427150925153114e+01,3.062131788589641701e+02,-2.601402101935857303e+00
-1.130062996376505779e+01,3.150890295819800713e+02,8.429867123160761366e-02
-1.070922641058579927e+01,3.152967711430537179e+02,1.803971086133998369e+00
-2.438618591711307459e+00,3.115234933444835974e+02,1.305978678095866741e+01
-7.750563323234533897e+00,3.135737175779138397e+02,7.151492706587603720e+00
-8.819320452355027484e+00,3.145131424314070046e+02,5.479925941597315386e+00
-6.602486637241874234e+00,3.132446323873888332e+02,8.944436740096023186e+00
-5.292753064791494211e+00,3.129137658821560990e+02,1.063351542169804986e+01
-3.803701072381528547e+00,3.129033589886132063e+02,1.220583284863838713e+01
-9.917831229701212337e+00,3.155835320143609692e+02,3.723585188175547955e+00
-5.205802498494627173e-01,3.117057754841804353e+02,1.442215490113125043e+01
1.597305883991026576e+00,3.113850435278695272e+02,1.521968156053576138e+01
3.873800042347465222e+00,3.112341858730222839e+02,1.553751981160251461e+01
6.588318734438393776e+00,3.104679703214101778e+02,1.520809173073421761e+01
1.444046826668770400e+01,3.058581507155756185e+02,1.169944678313073716e+01
1.302466170370041532e+01,3.073493656656779649e+02,1.263085701586103760e+01
1.654663633357390040e+01,3.065567435173551871e+02,1.082123654409890712e+01
8.818853338606666981e+00,3.104978266848790440e+02,1.471060836420330986e+01
1.176052725429346602e+01,3.088692201697315340e+02,1.339881521332777403e+01
1.089003246071342446e+01,3.107010039956931564e+02,1.408429449492959407e+01
-1.310624998383784856e+01,3.155810060106950914e+02,-1.515470717244078003e+01
-1.248525158705447424e+01,3.155235811362928189e+02,-1.700637450513197990e+01
-8.476056493921708679e+00,3.141659778152097715e+02,-2.056593924956673902e+01
-1.008358211353183620e+01,3.147981449378796128e+02,-1.987038185480028574e+01
-1.144846282306344953e+01,3.152059712463964161e+02,-1.866082297350359198e+01
-1.406393041944903288e+01,3.179983535187004691e+02,-9.785192105556703268e+00
-1.366247802385732868e+01,3.173462513190402774e+02,-7.463532867637184154e+00
-1.407953255775961665e+01,3.176381913678325759e+02,-1.213939689581563641e+01
-1.393779333875595405e+01,3.174448092666263506e+02,-1.435248114602829617e+01
-1.370823233784566675e+01,3.189025510245012356e+02,-5.438259424939019482e+00
-1.302424969086876061e+01,3.181543240426169632e+02,-3.241226234712712539e+00
-1.214613355510367221e+01,3.168373482432805304e+02,-1.264509169737465299e+00
-6.469855602113341320e+00,3.141285581044751893e+02,-2.112048129445727440e+01
3.179585653282570590e+01,3.082741748896747254e+02,-4.634716070163785950e+00
3.091640521623385496e+01,3.101781677034405220e+02,-6.447440060109626003e+00
3.006614275216234944e+01,3.120609696347483464e+02,-7.669217230211232028e+00
2.837290190051112759e+01,3.117979338501461939e+02,-8.859227200179866202e+00
2.645920844448675524e+01,3.119382715356381937e+02,-9.943700022470743249e+00
2.456584547403980423e+01,3.131903725237441449e+02,-1.087441097922515354e+01
2.254889415765429561e+01,3.144588988253897242e+02,-1.181265864711710378e+01
2.027151886635637368e+01,3.156486112969401461e+02,-1.281859960164921830e+01
-1.228573926095002378e+00,3.149174513574849925e+02,-2.114970468161438077e+01
-3.114827004359597140e+00,3.153536704175297132e+02,-2.143131914190359311e+01
-5.029611362596897450e+00,3.158602939928140358e+02,-2.154177124842374624e+01
1.829393858115309968e+01,3.173967114971158026e+02,-1.373870251462960468e+01
1.083670186661495194e+01,3.175339509774689759e+02,-1.747670709274161283e+01
1.268213283308585204e+01,3.172502175330211003e+02,-1.656991930547279424e+01
8.920572289036577729e+00,3.180460699419798516e+02,-1.833133442929874946e+01
6.953433950403372421e+00,3.188908036285537264e+02,-1.914296914917420622e+01
3.606341381755079567e+00,3.175236891919308277e+02,-2.019731938600958898e+01
4.987760440152534613e+00,3.190752291649184826e+02,-1.984521686434585064e+01
1.620187043487565859e+01,3.183311291563453551e+02,-1.474906153560328903e+01
1.420944214636256930e+01,3.189056213123430439e+02,-1.580960372782417522e+01
1.320269901109156763e-01,3.166405773977974150e+02,-2.103999064643648609e+01
1.473518814680147671e+00,3.182500939177941746e+02,-2.084652092719851169e+01
1.875459616873693847e+01,3.072561155011018741e+02,9.810124764019322541e+00
2.431567432903930381e+01,3.074849068845842339e+02,7.305370507669422864e+00
2.224244623251950870e+01,3.073251272436309023e+02,8.149445078314229818e+00
2.067556035507372769e+01,3.083834202031612790e+02,9.082345249139924803e+00
3.195003993033085621e+01,3.078612220103037771e+02,3.917800411039070951e+00
2.887402352704635788e+01,3.088271826177569324e+02,6.084216105970469357e+00
2.675085482105125223e+01,3.084050661104435562e+02,6.714782259167916934e+00
3.079670107096803378e+01,3.094505204055818695e+02,5.272851191728978648e+00
3.292359305218785437e+01,3.088314725948017667e+02,1.901575118676287701e+00
3.293509445916073730e+01,3.076469135148964824e+02,-3.606119304144641546e-01
3.270504058204971898e+01,3.088220490070074788e+02,-2.599676035626669268e+00
-1.176249755411200404e+01,3.176140626940026550e+02,5.658403904788542604e-01
-1.094339676531600780e+01,3.171579249496869011e+02,2.339391707658123210e+00
-1.924118233290510460e+00,3.136028397122938145e+02,1.406133387278101310e+01
-8.447559986583272007e+00,3.157688170500470619e+02,6.572093939938866924e+00
-7.472340125567399127e+00,3.154810033730423697e+02,8.138388112780191364e+00
-9.465411512942090155e+00,3.168108090761595577e+02,5.130761240842645066e+00
-6.300088827377415157e+00,3.151260875334293132e+02,9.858330441223358775e+00
-5.009368938496429280e+00,3.150085277561147450e+02,1.151258579314425390e+01
-3.478292577593013135e+00,3.147273393945345674e+02,1.307217855900655223e+01
-1.051338412373181974e+01,3.180527229075840410e+02,3.711802671531827968e+00
9.815747178223332980e-02,3.134963730860638407e+02,1.525472043725243765e+01
2.221950490691376956e+00,3.132298715473776269e+02,1.587821049394278106e+01
5.875878124285769388e+00,3.121409651046739668e+02,1.574468787692036642e+01
4.313447525146429484e+00,3.133825526998067517e+02,1.616804054042123440e+01
8.095456097827817388e+00,3.122490754546824974e+02,1.533532509029442181e+01
1.518673652724626244e+01,3.079969092040522014e+02,1.179514984968958125e+01
1.393775226994625349e+01,3.093973185633954586e+02,1.265496656663447617e+01
1.728758824054582277e+01,3.087128804126381851e+02,1.091233523398638283e+01
1.027369913935470791e+01,3.124266478433441989e+02,1.469422510011732896e+01
1.276137561945696675e+01,3.107597222066441418e+02,1.340095613239201278e+01
1.254361160183903579e+01,3.126127329903417262e+02,1.388564435339809577e+01
-1.348557921100567114e+01,3.176084917557364520e+02,-1.653992164777691443e+01
-1.264012031994835716e+01,3.173938079616111736e+02,-1.828470065537117506e+01
-8.020500110717149411e+00,3.157991647272026512e+02,-2.112379084094551374e+01
-9.801781699538278048e+00,3.166448623286277098e+02,-2.070732010182117477e+01
-1.135699531920835170e+01,3.169711254042473456e+02,-1.970706327701190474e+01
-1.488061526349319408e+01,3.205641668315814741e+02,-9.601880899825189886e+00
-1.475743064613200950e+01,3.197630615248878030e+02,-1.159790725869454775e+01
-1.434272865883292702e+01,3.196458324220488976e+02,-7.613937911851650142e+00
-1.476354022594882842e+01,3.194846738911346620e+02,-1.369779340903338039e+01
-1.440332203925531473e+01,3.192156881377207469e+02,-1.569712016297427226e+01
-1.445938162093970014e+01,3.211996511263453158e+02,-5.551187928416297268e+00
-1.370122380443670984e+01,3.203267335710523298e+02,-3.402674284832116314e+00
-1.280947928323175233e+01,3.191451133047069675e+02,-1.297486386860299490e+00
-6.673445011815720918e+00,3.167940601669059220e+02,-2.160995183163136346e+01
3.224485912672039944e+01,3.105759898409373818e+02,-4.554956498109018703e+00
3.158248066261699449e+01,3.124481984825883387e+02,-6.181588665614075495e+00
3.063459664918684311e+01,3.143602976155790998e+02,-7.537149704552096097e+00
2.886310142981701432e+01,3.140845902543295551e+02,-8.841792387513411455e+00
2.681952056893400993e+01,3.139727571935741253e+02,-9.906539268248231167e+00
2.487881915195974969e+01,3.155710749921574916e+02,-1.089851240990431158e+01
2.281462893209803866e+01,3.167323758197031793e+02,-1.175744407666856794e+01
2.058154230530143991e+01,3.176661569486033727e+02,-1.268785415496185109e+01
-1.816170539146355623e+00,3.172283042573087073e+02,-2.144794233540195449e+01
-3.716414435620830403e+00,3.177575947606747491e+02,-2.175211014491788575e+01
-5.477462905636386381e+00,3.184810873948223389e+02,-2.198372131732550372e+01
1.766385454455663506e+01,3.199705076921355840e+02,-1.397937966948858346e+01
1.975657143961697670e+01,3.196330005042256630e+02,-1.303240781937294201e+01
1.047980882012019777e+01,3.197293141886695480e+02,-1.770878359702379612e+01
1.233650174436450442e+01,3.193529716104861791e+02,-1.677522684347326276e+01
8.603155717557577020e+00,3.201020585577234669e+02,-1.855537452511882179e+01
5.933129097585670308e+00,3.211447543133904787e+02,-1.963548051609478051e+01
7.609797641755278619e+00,3.217946258736536720e+02,-1.904880931135489419e+01
2.809913319460413561e+00,3.197391199463797307e+02,-2.058144151392176013e+01
4.060173110835592070e+00,3.211446732214824920e+02,-2.028489093451563718e+01
1.564224103377145525e+01,3.205826776536397347e+02,-1.503866620373410967e+01
1.372876331954523721e+01,3.210971754157994269e+02,-1.608421975569763163e+01
-5.284021381012848906e-01,3.190299973567757661e+02,-2.138301732160535806e+01
8.220106619284450744e-01,3.207210109191325387e+02,-2.120103833164545648e+01
1.926200385945809757e+01,3.096726844621765622e+02,1.008064464770669488e+01
2.291614047101981555e+01,3.093084861964619563e+02,8.198376429775622753e+00
2.495799899034524572e+01,3.097679892663717851e+02,7.484350301250161763e+00
2.132808609949436018e+01,3.105748590471841339e+02,9.207467186857389407e+00
3.235173971685866690e+01,3.103212359050201030e+02,3.754667052553056550e+00
2.716178651820406742e+01,3.105554951084540107e+02,6.935221503693426826e+00
2.931607409484217897e+01,3.112561114671929658e+02,6.288369178739266374e+00
3.119808026559920933e+01,3.119135913662213966e+02,5.264277211185792282e+00
3.317505909739535497e+01,3.113739555668681760e+02,1.754071795153212321e+00
3.323235548097312630e+01,3.100331601812503663e+02,-3.714922816614087964e-01
3.305337876770666128e+01,3.112630871404662685e+02,-2.525413993155154913e+00
-1.162671301301507043e+01,3.192490356158545524e+02,2.074683792526016646e+00
-1.257359864964008445e+01,3.201759245167591530e+02,4.019712005131168553e-01
-1.154100503837547365e+00,3.155413001379198477e+02,1.520013687880478415e+01
-2.842462406102058026e+00,3.163380995279632089e+02,1.415552648053542129e+01
-8.629351663157695640e+00,3.177514443625635749e+02,6.911336272825906235e+00
-7.268621928684805056e+00,3.172745423087511654e+02,8.989313475136810894e+00
-9.917720584806765771e+00,3.189959095975099785e+02,5.241167784951073827e+00
-6.046494782407336288e+00,3.171858920662778019e+02,1.077906763856374539e+01
-4.541184289675882724e+00,3.168406454572287885e+02,1.259777423171009048e+01
-1.111758633826917020e+01,3.202504506533729227e+02,3.663289707155215069e+00
9.284891102806014374e-01,3.152711875775573844e+02,1.613378089964719209e+01
3.072530722775386636e+00,3.151308617632151936e+02,1.658815047732712245e+01
6.895637679710553414e+00,3.138663878554961570e+02,1.610209393209084183e+01
