-1.072923740343397370e+01,-2.491436938732586981e+01,-2.964847979276787271e+01
-1.052830612388623699e+01,-2.266229416350389059e+01,-3.037302301609373956e+01
-1.031197192601088730e+01,-2.052626087152152223e+01,-3.092103249156173916e+01
-9.268144247899927635e+00,-2.132361166667198660e+01,-3.229694754389424816e+01
-8.777448182685834155e+00,-1.905911473784242460e+01,-3.238922296742278206e+01
-7.252344281834369966e+00,-1.925331323355673163e+01,-3.305857692486896582e+01
4.693671289365980215e+00,-1.516965887028821669e+01,-3.197707673021234598e+01
7.008370456429553030e+00,-1.527221080706505774e+01,-3.144536649294275676e+01
2.307465488196202230e+00,-1.582713740714742556e+01,-3.239343363063743908e+01
8.767454958065634685e+00,-1.677210669390660769e+01,-3.084815149341749674e+01
-2.629753672720624991e-02,-1.673618619275337949e+01,-3.285349506441866652e+01
1.042743488800150331e+01,-1.757750755819058242e+01,-2.970887143634610084e+01
1.129562118673112359e+01,-1.934085075760615879e+01,-2.873927848285119069e+01
1.202158079694465620e+01,-2.096709816057548181e+01,-2.733941855054028025e+01
-1.596295014125643785e+00,-1.854646181824642071e+01,-3.328833152332904177e+01
-4.720512800445052726e+00,-2.198592269852115777e+01,-3.368692965901630743e+01
-6.338094763250657238e+00,-2.196486282747027730e+01,-3.344185833035232491e+01
-2.848960109155402876e+00,-2.200192561947265446e+01,-3.378531457088688938e+01
1.231415391121808156e+01,-2.100457710427392044e+01,-2.159675069878694131e+01
1.243584209077871705e+01,-2.293218501833391798e+01,-2.311837823374787249e+01
1.248887417870174232e+01,-2.332773677761277398e+01,-2.526971131124787817e+01
1.110055644466526914e+01,-2.104610407586943310e+01,-1.946292695310537013e+01
9.347000575209367668e+00,-2.042953404790698002e+01,-1.807179262781910012e+01
1.806542827674956797e+01,2.592373842624805889e+02,4.162822525259096018e+00
1.998017490425641540e+01,2.594712256642182524e+02,3.244448146872263905e+00
2.483544347090306204e+01,2.628057870425947158e+02,-7.117203778251544044e+00
2.342901402241774278e+01,2.634158232025873190e+02,-8.906884769822520198e+00
2.577740972686690313e+01,2.635515088054806370e+02,-5.415237678290186096e+00
1.936822591230578894e+01,2.674243616118748719e+02,-1.240871280823630762e+01
1.787454668635462696e+01,2.687345507000711677e+02,-1.333212249763217905e+01
2.129637713499151630e+01,2.667779976093055438e+02,-1.101726838022550581e+01
2.304847137896663867e+01,2.659133258166272071e+02,-9.430134217064187752e+00
1.470470094986698228e+01,2.680472797782063594e+02,-1.480721772989347329e+01
1.268634445696084789e+01,2.687740045704960608e+02,-1.561947249153694273e+01
1.608031080588420991e+01,2.696259682905183013e+02,-1.424771759999558718e+01
1.045552378156987139e+01,2.698390528738708554e+02,-1.643519740848251942e+01
-2.995007780930180274e+00,2.707073032183894270e+02,-1.889789977115069419e+01
-6.921765144516847101e-01,2.714636684728280329e+02,-1.894916058464603736e+01
8.468143634860103575e+00,2.713285525505730220e+02,-1.710292109733393673e+01
4.178703816838339691e+00,2.730189978690993939e+02,-1.835694442610759936e+01
1.740452305551528411e+00,2.721687162988898763e+02,-1.878013605078560744e+01
6.687749427834061677e+00,2.737279409517442446e+02,-1.770677951445106402e+01
2.518643278122236850e+01,2.610670753521507663e+02,-1.635170309300713498e+00
2.376506839316681408e+01,2.602786510761894760e+02,2.737797290677539408e-01
2.193762580508585103e+01,2.598089261340784333e+02,1.925443104666963556e+00
2.580886938008041653e+01,2.634026469286081920e+02,-2.213073500793389492e+00
2.622043000907623167e+01,2.648058903398450639e+02,-3.947085508326068748e+00
8.754383697822387234e+00,2.583447064763650474e+02,7.908613016382878058e+00
5.456455448955441767e+00,2.596544232245242370e+02,9.528570100049394753e+00
7.471109562918352154e+00,2.601643400669713060e+02,8.825417838944860094e+00
3.513904331240087942e+00,2.604454736081277133e+02,1.002195805266852879e+01
1.093669632794300206e+01,2.590179418526223571e+02,6.896837088538241289e+00
1.342343003222911335e+00,2.615739636809052513e+02,1.017063008834820792e+01
-5.252746150284650639e-01,2.628320835563334867e+02,1.009569245261874926e+01
-2.768858355853266673e+00,2.639060449575060261e+02,9.632744297739670003e+00
-4.968352012280245589e+00,2.651676330476795442e+02,8.741882181596173140e+00
-1.298612418729185691e+01,2.708513388844339147e+02,1.281042244882261372e+00
-1.180683653806990918e+01,2.703009039621409784e+02,3.431692902552022417e+00
-8.629034610552515971e+00,2.690847403387402892e+02,6.740830573182238439e+00
-1.025169050414393013e+01,2.709234643807254770e+02,5.475622175064055241e+00
-6.856469402450674266e+00,2.691824177289047952e+02,8.081517867173889869e+00
-5.176931803312758262e+00,2.675083048888312760e+02,8.904641940813798229e+00
-1.403149942106516335e+01,2.723907650977458843e+02,-3.067958710545718226e+00
-1.234508261551362551e+01,2.730070930449189746e+02,-1.267165788553187511e+01
-1.119606526052511697e+01,2.725028412017153983e+02,-1.456485446068078460e+01
-9.755160112640709258e+00,2.719426649374973977e+02,-1.620731458493249733e+01
-1.328004367428373911e+01,2.734334957533259853e+02,-1.045154034393277342e+01
-1.387753409706537866e+01,2.738296257000440050e+02,-7.927720047560466554e+00
-1.408846245530131114e+01,2.743693501947705045e+02,-5.232571791032043507e+00
-1.355018453968605030e+01,2.730178439287278138e+02,-4.044814668487535236e-01
-7.973086125781925659e+00,2.712770740698380223e+02,-1.749860876995100512e+01
-6.467180944066310389e+00,2.731177895058974627e+02,-1.822069503935874835e+01
-4.430342219390396963e+00,2.727584038861419913e+02,-1.872783748855429664e+01
1.300429397764643724e+01,2.595029102623420840e+02,6.064132301629221899e+00
1.480453200024750160e+01,2.598763212431391594e+02,5.442772998332320533e+00
1.582757042004682546e+01,2.617457391022345519e+02,5.333318534609993833e+00
1.739799876433825787e+01,2.614266104738260879e+02,4.737595983010397305e+00
8.502150695430771066e+00,-1.890741474390330978e+01,-1.649599859081373410e+01
7.825714142930187300e+00,-1.786970288552855379e+01,-1.489342362649703233e+01
8.178333531411624335e+00,-1.740292862347769542e+01,-1.344411887612499434e+01
8.906070793286481546e+00,-1.747768957904150255e+01,-1.218779874497935012e+01
9.611353677144682806e+00,-1.786178831377127096e+01,-1.098883173521301160e+01
1.005808597010690697e+01,-1.813325109869267848e+01,-9.709337998750928733e+00
1.059145353446892379e+01,-1.824763519559210323e+01,-8.210932057855647059e+00
8.644235544226392065e+00,-1.772349296142473563e+01,-7.543984818284521054e+00
9.278931982879692342e+00,-1.795607845475469588e+01,-5.707290097146923813e+00
1.010530952699295248e+01,-1.831526736479278483e+01,-3.664298099764252470e+00
1.050048759664998421e+01,-1.806872634319207549e+01,2.228797980530480061e+00
9.479780241280607811e+00,-1.813972625078110923e+01,-2.800320223759484861e-01
8.402260544510921747e+00,-1.796624174102075244e+01,-2.541974788988007106e+00
-8.012337783206604058e+00,-2.012055748100006269e+01,5.747913350030060542e-01
-9.685074515084696856e+00,-2.095957706062579717e+01,9.206034502902511463e-01
6.819127469124435237e+00,-1.754209588058175484e+01,-9.303405390791041896e-01
4.519049095666204607e+00,-1.719149530385996627e+01,-1.286700836701946571e+00
1.737526304887831330e+00,-1.704342683510600409e+01,-4.078042276075393602e+00
-2.652614907590393756e-01,-1.720209242250302140e+01,-4.539295419518900587e+00
3.810856091529551293e+00,-1.714138367513335481e+01,-3.631467113578736416e+00
-3.105413536823346199e+00,-1.802225488083805160e+01,-3.169294557648868249e+00
-2.158596382176875217e+00,-1.761580463243495842e+01,-5.027407659901520276e+00
-4.700082674358808887e+00,-1.854616765003139989e+01,-2.662713732151885893e+00
-6.375395153827684069e+00,-1.915678464860578600e+01,-2.400809251982245485e+00
-7.967120130886597096e+00,-1.983950695286569044e+01,-2.158121323842657091e+00
-1.128558866827840035e+01,-2.119836503897785462e+01,-1.535538336707084284e+00
-9.523763732443892849e+00,-2.054939421631758734e+01,-1.830429195640803641e+00
-7.139121121495715094e+00,-1.913451739985242739e+01,-6.929814573105943509e+00
-7.717090656322989517e+00,-1.950145646363151997e+01,-4.686241216429650080e+00
-6.299608661036458557e+00,-1.871520423997961302e+01,-8.852153259177597988e+00
-5.098777168096551904e+00,-1.822332950096301118e+01,-1.049215611121743308e+01
-6.822584560731641545e+00,-1.929314579232452687e+01,-1.477517028155330081e+01
-6.831478967255479873e+00,-2.033432016768202644e+01,-1.654589708760807554e+01
-6.471049354443793256e+00,-2.204885278277993166e+01,-1.833872296742010377e+01
-5.276381943809787423e+00,-1.837571271292757302e+01,-1.335215242384318657e+01
-3.765838090812554384e+00,-1.769031337694111272e+01,-1.190582385578340308e+01
-5.741357859856875301e+00,-2.390732196954929023e+01,-1.965757178110975900e+01
-5.650673415884345907e+00,-2.597549957967778766e+01,-2.106448726773130886e+01
-7.485751732270117031e+00,-2.682046851897023743e+01,-2.236097241171841432e+01
-8.915854134784355622e+00,-2.759588147770295308e+01,-2.384361489672046730e+01
-1.018921805620934151e+01,-2.767168177245750726e+01,-2.571409698706196423e+01
-1.121939995211290153e+01,-2.652009650206790070e+01,-2.668148495965030520e+01
-1.053797382957718476e+01,-2.690020170445157888e+01,-2.834160180868185819e+01
-9.635241636123843989e+00,-2.701323939632823112e+01,-2.985962754492483384e+01
-9.881081413743325825e+00,-2.512719302280258660e+01,-3.096365022634689979e+01
-9.544053944435500370e+00,-2.348230751381026238e+01,-3.184720718111827864e+01
-8.333938359495167703e+00,-2.433778705548396459e+01,-3.241712102099700132e+01
-7.946859691285323102e+00,-2.198251637542922055e+01,-3.301125665475776572e+01
4.123914265271641177e+00,-1.697201850859872252e+01,-3.239822357868598601e+01
6.448690256663647702e+00,-1.702458003456981572e+01,-3.178397614237080404e+01
1.936498236056618971e+00,-1.728851705696730079e+01,-3.282858408742779943e+01
7.770099380842581560e+00,-1.874120334984687020e+01,-3.146662211554514954e+01
9.725034730732513566e+00,-1.919673871050762415e+01,-3.036040080814608899e+01
6.532681272410948425e-01,-1.883683880716949233e+01,-3.315701797976331022e+01
1.080839505297674918e+01,-2.137786183382943150e+01,-2.922146347283970869e+01
1.182105763563874312e+01,-2.319690525654174706e+01,-2.739946963849833494e+01
-6.367266242521081310e-01,-2.170043985490830707e+01,-3.350905801911189741e+01
-5.352699592965313613e+00,-2.493710101184407790e+01,-3.343314542037360582e+01
-3.782405664296542014e+00,-2.532947049928398542e+01,-3.365862372915416501e+01
-6.861144987512355797e+00,-2.458845142049769095e+01,-3.296133864416560044e+01
-1.922013505335810279e+00,-2.545686209115898180e+01,-3.363644144814402637e+01
1.123548020878799392e+01,-2.312759820211458006e+01,-2.086233053975150398e+01
1.184628639517348603e+01,-2.619288818844119504e+01,-2.390235671626150449e+01
1.137231089223319813e+01,-2.527523798538400968e+01,-2.223512249105666427e+01
1.182199798807550906e+01,-2.641105715440878043e+01,-2.606210226492274629e+01
9.401884549861179607e+00,-2.288377389131171924e+01,-1.945768773722162948e+01
6.774790684706653465e+00,-2.076789586859239733e+01,-1.768258169640704125e+01
7.201470814293680967e+00,-2.300948208021903696e+01,-1.893800923305421335e+01
1.920786799162486957e+01,2.615425211185926173e+02,4.003648162641751718e+00
2.107837382547828398e+01,2.617088660076341853e+02,2.983331720476559035e+00
2.462718256204812661e+01,2.650339402400418294e+02,-7.581468745913143792e+00
2.566450735792810534e+01,2.661003576840188316e+02,-6.027286291444986510e+00
1.917319859276057770e+01,2.702386271321129243e+02,-1.264391444392437869e+01
2.087167996621728960e+01,2.691453165649414245e+02,-1.144886650071402201e+01
1.731161725122933603e+01,2.713362231835386069e+02,-1.370929838138493473e+01
2.271904266036939646e+01,2.683811316560017417e+02,-9.875606138730496752e+00
2.438619418836955788e+01,2.673828496942199422e+02,-8.034291725808158091e+00
1.420954786558812266e+01,2.705986728233467602e+02,-1.505986946488478218e+01
1.236010479200299628e+01,2.711014464891815692e+02,-1.576828911076049522e+01
1.532288252732338840e+01,2.723538579896114129e+02,-1.464898879616013616e+01
1.070492116731709231e+01,2.723903538934785047e+02,-1.637914795835038007e+01
-2.343444264038247127e+00,2.735349547227113476e+02,-1.897915415896186531e+01
-4.897523491696276210e-02,2.740821408352408639e+02,-1.899100996861022850e+01
8.941056599275643890e+00,2.737409815163596249e+02,-1.700165879114725342e+01
2.351337141922869023e+00,2.747791973162823638e+02,-1.877183119835554237e+01
4.960771626468144291e+00,2.755436632181630898e+02,-1.824094853368629288e+01
8.248367376278034513e+00,2.759850277362008342e+02,-1.728573954492507880e+01
2.465726490365154078e+01,2.625927040363773131e+02,-2.204019946573874122e-01
2.298524596338680226e+01,2.620343366636618043e+02,1.499763687051298255e+00
2.534529862661456434e+01,2.649164835729719698e+02,-6.066892216622754574e-01
2.626352657498257770e+01,2.660066215769954852e+02,-2.443473488113020231e+00
2.635146730110152902e+01,2.673592016191259404e+02,-4.477622854757346005e+00
9.619216323305263217e+00,2.608558142107179378e+02,7.787715178079656297e+00
5.805046201125382055e+00,2.620883100058857735e+02,9.730933205101800709e+00
8.214376162006912452e+00,2.625900880601416247e+02,8.743622871725609258e+00
3.358022663973530442e+00,2.626257927064806950e+02,1.028569924347717013e+01
1.186158829589975561e+01,2.613765502977360597e+02,6.743459702854151416e+00
1.663215485681076800e+00,2.642239856767243396e+02,1.047457456223124161e+01
-8.267581453363632704e-01,2.650922194883715406e+02,1.021170234920903397e+01
-3.166856825773045614e+00,2.661659705797315496e+02,9.636889851829444353e+00
-1.267946733598591535e+01,2.727708608206972372e+02,2.016353210052383105e+00
-1.146568095545208266e+01,2.727078548803564786e+02,4.140079431253662179e+00
-8.505669106151877656e+00,2.713960310100983975e+02,7.146010592182754806e+00
-1.001822507014046337e+01,2.733722842652941267e+02,5.975109795428014792e+00
-6.776260701985325596e+00,2.718607251039488233e+02,8.461051906008080437e+00
-5.111594997079162539e+00,2.700041925591007725e+02,9.214311542473664574e+00
-3.350261141393984232e+00,2.685834525310317531e+02,9.884814008171810329e+00
-1.394184511882420452e+01,2.748980428891051702e+02,-2.442081394465732025e+00
-1.153955461965482954e+01,2.750346755230667668e+02,-1.419601270487387978e+01
-1.263596136092692035e+01,2.754288838887037514e+02,-1.218497656838786725e+01
-1.026852160306027884e+01,2.744058954671918400e+02,-1.579159956296045308e+01
-8.569004377679370066e+00,2.738488729460915465e+02,-1.722185307400591725e+01
-1.344521494075798529e+01,2.758802904201959336e+02,-9.914887566509932526e+00
-1.392929889109087327e+01,2.763332094684172944e+02,-7.397169820893974901e+00
-1.406603292575114494e+01,2.768754968998122195e+02,-4.676084367425684007e+00
-1.335040038952862673e+01,2.753598713807308513e+02,3.916223029446266324e-01
-4.490103826766912221e+00,2.754547314405395468e+02,-1.877576226972430362e+01
-6.886159604220456032e+00,2.755899399760342590e+02,-1.812017219195175954e+01
1.394075713109923242e+01,2.617680477726465256e+02,5.976925081059981437e+00
1.487570070482442475e+01,2.638849824172114040e+02,5.918425061104649387e+00
1.671273795373032200e+01,2.638461117125864348e+02,5.272602958974987430e+00
1.843751401272520241e+01,2.637289636846206804e+02,4.608083905400182090e+00
6.053598517618279828e+00,-1.889038679282489497e+01,-1.609203712701530264e+01
5.547441408287207665e+00,-1.754991467724360632e+01,-1.438180684694518874e+01
6.427580031546979988e+00,-1.708382456898040402e+01,-1.290156073962940830e+01
7.092155487450455098e+00,-1.716081186299578576e+01,-1.169005095391482740e+01
7.665705536536617792e+00,-1.744422721851871927e+01,-1.048634248477815589e+01
8.091856865663366705e+00,-1.761585961236768583e+01,-9.101403346447050069e+00
6.831471286721217950e+00,-1.744783664958566760e+01,-6.648311923732094897e+00
6.210314863817657738e+00,-1.727846880171400556e+01,-8.324777066801658520e+00
7.545367958753454118e+00,-1.768883323013089992e+01,-4.709198313537349634e+00
5.969619310427766834e+00,-1.745027448488823296e+01,-3.185856825015783045e+00
3.051829088415171753e+00,-1.703203769795117495e+01,-5.750568585523481602e+00
9.919359340720959040e-01,-1.699831823143028942e+01,-6.222051929589632380e+00
-1.041916747839600532e+00,-1.724934703857174867e+01,-6.703878045031977706e+00
5.237938097249802638e+00,-1.727137160059176324e+01,-5.300565785162405064e+00
-4.163328140630682128e+00,-1.822820989204084441e+01,-5.180945340342383076e+00
-3.118682866846880231e+00,-1.778197639838878530e+01,-7.018115512310316717e+00
-5.937250893112246075e+00,-1.884585482600115824e+01,-4.907652553506650861e+00
-5.138578125874619928e+00,-1.846209610638349830e+01,-7.103027089464731603e+00
-4.114695490232048947e+00,-1.799683970763631180e+01,-8.828833927901420964e+00
-2.920158516327450826e+00,-1.748721881980460324e+01,-1.023262385034197308e+01
-4.932573370350553432e+00,-1.876069747216716621e+01,-1.502703823239165359e+01
-4.733882108772359487e+00,-2.005800623347687406e+01,-1.669345566965801808e+01
-4.139025332567285886e+00,-2.194204838015943082e+01,-1.813438132578142614e+01
-3.298550988396437234e+00,-1.776041214325537609e+01,-1.373335231185692606e+01
-1.750772851466048330e+00,-1.709672993547967934e+01,-1.274852047655047471e+01
-1.405997780664561603e+00,-1.699680906571120076e+01,-1.127385304357484586e+01
-3.617466069977657295e+00,-2.447530547309014537e+01,-1.965875549677837242e+01
-5.750918815629137981e+00,-2.780507581880740275e+01,-2.274531486833279814e+01
-3.520148815074475301e+00,-2.704001052170485764e+01,-2.141150224041578198e+01
-7.097922278750418812e+00,-2.863336377259621202e+01,-2.457319010925594682e+01
-8.746245503075149585e+00,-2.843518503254638574e+01,-2.581022166711403543e+01
-9.321575998134072449e+00,-2.815383166070210663e+01,-2.789850420727530889e+01
-8.313630227608005185e+00,-2.822799050171815338e+01,-2.940919454090028751e+01
-8.675186777449216180e+00,-2.646855566969372830e+01,-3.113401554799311555e+01
-7.243598201826825900e+00,-2.652630642616245282e+01,-3.179267192089898231e+01
3.162811625530049575e+00,-1.884597125388800265e+01,-3.277263571993061930e+01
5.444661354856032531e+00,-1.872008184028791788e+01,-3.225525037674218964e+01
6.941791345104912914e+00,-2.079735978992107448e+01,-3.189706294431460165e+01
9.009682371169034809e+00,-2.090124902887847114e+01,-3.079902615049859449e+01
1.932121014746931431e+00,-2.128582835446767518e+01,-3.314620729596028781e+01
1.004965741307262306e+01,-2.356357489575714226e+01,-2.986927945820790598e+01
1.111272621306179431e+01,-2.548611313173701021e+01,-2.830777707015082711e+01
5.254952228705018769e-01,-2.504983942096517779e+01,-3.344601541678242285e+01
-5.716878515047649323e+00,-2.699681729602290403e+01,-3.255166739855456370e+01
-4.292683285859785869e+00,-2.777545477403469221e+01,-3.317738002890924776e+01
-2.735407293744815505e+00,-2.828889452332671439e+01,-3.335290606541028779e+01
-7.236994702049948103e-01,-2.825837256349884541e+01,-3.314169724637911685e+01
9.565543209426603966e+00,-2.535636635203326250e+01,-2.084346082348494278e+01
1.062533105789814414e+01,-2.898306461350817642e+01,-2.506979624414337238e+01
1.015770748039699534e+01,-2.858375153583689254e+01,-2.351076245444128432e+01
9.688398668744964581e+00,-2.736924504044536377e+01,-2.213595294495168275e+01
1.029116974035374810e+01,-2.878952190036154946e+01,-2.748393156498064371e+01
7.484425653149619606e+00,-2.559504065700239650e+01,-2.026469394776132305e+01
4.305815719991426427e+00,-2.079046171996832726e+01,-1.744378029695264587e+01
4.686605081434246145e+00,-2.333210894360110998e+01,-1.871850727896121214e+01
5.024391438775356988e+00,-2.576444970498749854e+01,-1.990660625105186909e+01
2.025517483135513430e+01,2.638565394857491810e+02,3.869915140308333612e+00
2.210835470383778656e+01,2.638233170774210521e+02,2.675498370434913120e+00
2.550309765521593874e+01,2.686882988723554035e+02,-6.592477618380437221e+00
1.879843601437533351e+01,2.727404321166748673e+02,-1.299561246703402695e+01
2.061235785547025046e+01,2.716995749326997043e+02,-1.177448173718172697e+01
2.238810345931012336e+01,2.707609891454222861e+02,-1.033330949925911213e+01
1.684758459119287011e+01,2.738254944927477936e+02,-1.403760953396025535e+01
2.411172670351470870e+01,2.698687441571325394e+02,-8.569362354491838474e+00
1.308228920013226926e+01,2.733294773696023299e+02,-1.553917203163945615e+01
1.480487153095899444e+01,2.748024346335076302e+02,-1.494583894848793015e+01
1.091266690591714905e+01,2.747883621162808367e+02,-1.635111033575803674e+01
-2.050915602025987994e+00,2.760829993870695489e+02,-1.907030121709442128e+01
3.137020987937155780e-01,2.766371934586678663e+02,-1.906880703614184114e+01
2.682458628705830961e+00,2.772747363775804956e+02,-1.879291212424710977e+01
6.585335544922058304e+00,2.774904533646064237e+02,-1.785130560545960066e+01
4.690478500474277723e+00,2.781959580692391114e+02,-1.839106461813710425e+01
1.041433652879406857e+01,2.771873348817424585e+02,-1.659654035959387031e+01
8.365827594219123142e+00,2.787992731454313571e+02,-1.733280851945237089e+01
2.396536947111960103e+01,2.642290970606600240e+02,1.092957962420213924e+00
2.459778149604017727e+01,2.666360285892843649e+02,1.020251695691752225e+00
2.593868094878177288e+01,2.672017211232993645e+02,-9.196884375950880042e-01
2.661301782184621345e+01,2.684812529209403351e+02,-2.852259454711621345e+00
2.637706856955857404e+01,2.698836323827859474e+02,-5.005396142066150134e+00
1.067388787460568977e+01,2.631488789981412992e+02,7.539387332971602795e+00
4.517374247246909391e+00,2.644052101643698620e+02,1.029498076200246537e+01
6.850543840829669051e+00,2.644429824088164196e+02,9.658570879421398914e+00
9.419792346823431473e+00,2.648318304177085452e+02,8.538487402988879538e+00
1.289738967465143382e+01,2.636583231503481670e+02,6.609605074174019990e+00
9.632058224766115728e-01,2.665639325294206401e+02,1.065110491351916266e+01
3.238678983607124806e+00,2.663779341516859063e+02,1.066724026469048070e+01
-1.360903969544644099e+00,2.673658799180170718e+02,1.031918224271441886e+01
-1.242830110044942771e+01,2.747300737295049657e+02,2.672117704337378719e+00
-1.127840502108882248e+01,2.751720095387750575e+02,4.662640167447941408e+00
-8.414468415598673090e+00,2.738365330835583222e+02,7.547974232580580534e+00
-9.906468013647113935e+00,2.758897758035599850e+02,6.404291514819014708e+00
-6.676266693254053308e+00,2.744207321571626039e+02,8.839231770680074263e+00
-4.948762521978519402e+00,2.725594020325082738e+02,9.539092874483975137e+00
-3.276228944392906683e+00,2.710644906235708618e+02,1.014333953814454858e+01
-1.411329246523866487e+00,2.698206294863592234e+02,1.056981455181954388e+01
-1.384725934542295533e+01,2.772620256066157367e+02,-1.876985728191376879e+00
-1.073144105027181183e+01,2.770775158962928231e+02,-1.555464259242352298e+01
-1.199467237950428000e+01,2.774227391701855368e+02,-1.370321530284136102e+01
-1.292481152874491812e+01,2.779154153785350445e+02,-1.169551570871091073e+01
-9.210859868865448163e+00,2.762339442562075646e+02,-1.687028843086573104e+01
-1.362798178574674068e+01,2.783524332955337854e+02,-9.387182463598481519e+00
-1.391718492271977681e+01,2.788447808241101029e+02,-6.859869676289829243e+00
-1.403983240707948710e+01,2.792935499362879455e+02,-4.171849692425988465e+00
-1.327266895782737777e+01,2.778347483541236898e+02,7.233388902618197447e-01
-1.240789879079920865e+01,2.767911399050681212e+02,2.899456464460095972e+00
-3.623747991440286143e+00,2.781831792234380600e+02,-1.900233987450729245e+01
-5.772904097964303816e+00,2.780197184734525422e+02,-1.855010653077238203e+01
-7.905701762356422080e+00,2.777983656501776863e+02,-1.774219829621719668e+01
1.388885579027910566e+01,2.659471301127485958e+02,6.587287163672636225e+00
1.582871256135400095e+01,2.659734456423275333e+02,5.866533186942893607e+00
1.770615271493367970e+01,2.659870201691779243e+02,5.212446955528097448e+00
1.955150079927852147e+01,2.660858567172658695e+02,4.511998937595758541e+00
3.747578481037980858e+00,-1.871833343724791376e+01,-1.597492834987872534e+01
3.047556031842505675e+00,-1.751521971536058331e+01,-1.475682248390047313e+01
4.200334971663310490e+00,-1.689243870326861696e+01,-1.347063402064624604e+01
4.616358194868315223e+00,-1.675014228879537370e+01,-1.233725344026696646e+01
5.220121335376646243e+00,-1.692839851026356257e+01,-1.112771345819513868e+01
5.748143090400366972e+00,-1.715086161006649235e+01,-9.798910093566604473e+00
4.574811128026308182e+00,-1.709389093664721315e+01,-7.157993350712267500e+00
3.952168421249403707e+00,-1.697997033058652150e+01,-8.842023976383806882e+00
2.400723258675144578e+00,-1.690143028067917186e+01,-7.656707771548134644e+00
2.510098663680899733e-01,-1.696411531521867744e+01,-8.096015705700708054e+00
-1.959296197259748240e+00,-1.731940446823380597e+01,-8.519309928259509945e+00
-6.308462377959109801e-01,-1.696936997087226473e+01,-9.776001947953005811e+00
-2.884661412045370632e+00,-1.841851246605473236e+01,-1.529900613247387398e+01
-2.445507963788071670e+00,-1.997815764006904971e+01,-1.677424944875695445e+01
-1.914411382630874847e+00,-2.224746132635560159e+01,-1.827099797240423129e+01
-1.320533666446771281e+00,-1.742910771512488921e+01,-1.427344310631826119e+01
2.134123791533459880e-01,-1.681517084722076305e+01,-1.342997565804858695e+01
3.946105343997814430e-01,-1.667976676945674797e+01,-1.213182312936833540e+01
9.349222607539804386e-01,-1.673915104893834638e+01,-1.078014029487092529e+01
-1.561094412910125850e+00,-2.490642503373088346e+01,-1.972698950463136924e+01
-4.573848000748025555e+00,-2.892347508705968551e+01,-2.378425719397204574e+01
-1.200073901009930388e+00,-2.713585646925564987e+01,-2.114276812741300304e+01
-2.312004907384457297e+00,-2.880638663316364045e+01,-2.293570393279165387e+01
-5.812947760950670784e+00,-2.955189405196377095e+01,-2.609394480747612022e+01
-7.675269740499695459e+00,-2.902418416318016625e+01,-2.715667141074567326e+01
-6.675303499277603692e+00,-2.935460250795252790e+01,-2.850486744566883601e+01
-7.225355781066451044e+00,-2.819499840265092061e+01,-3.034405662763096245e+01
-5.945307409204220406e+00,-2.852192703318203115e+01,-3.124457925072361775e+01
4.553379383798003666e+00,-2.101940060903040575e+01,-3.271211881455457160e+01
8.218362976198674730e+00,-2.381102786699905849e+01,-3.119538254181783898e+01
5.900696591142136960e+00,-2.385575393406529443e+01,-3.238333498473521388e+01
3.292796712365948952e+00,-2.444115561449152096e+01,-3.310452912441460427e+01
9.213410083228712466e+00,-2.748120210911239880e+01,-2.976727004976733326e+01
1.784777437967493441e+00,-2.792733078541537850e+01,-3.282974398326234677e+01
-4.785101421103426844e+00,-2.935670232300990179e+01,-3.227434434175889066e+01
-3.640194594967145036e+00,-3.011497390471784641e+01,-3.306946836896607067e+01
-2.018870578262120574e+00,-3.041038616958786633e+01,-3.329591689830095902e+01
3.473222319215558684e-01,-3.039943847086524897e+01,-3.286016707380149882e+01
7.563851275292802434e+00,-2.810204967687443300e+01,-2.176040388673329318e+01
9.213894849875776671e+00,-3.070350720432434954e+01,-2.645831354780223776e+01
8.514932599831878335e+00,-3.078697012811185729e+01,-2.491013889865885744e+01
8.153071553413045791e+00,-2.960851419636998116e+01,-2.322694447250479399e+01
8.480290451975424304e+00,-3.055486869951123197e+01,-2.876970818463422574e+01
5.488952121201517542e+00,-2.800354594113764506e+01,-2.130962477771567976e+01
2.400173808313770696e+00,-2.323640208597060308e+01,-1.861550705662231309e+01
1.993207028468113151e+00,-2.063682761933556264e+01,-1.735752907256614463e+01
2.652768214307723582e+00,-2.592707544339543091e+01,-1.993568855405354867e+01
3.013624610504887613e+00,-2.804662769170732872e+01,-2.133878206450548021e+01
2.136274075846042209e+01,2.660260259908658327e+02,3.598904459512054288e+00
2.309554947965339267e+01,2.657659169083868278e+02,2.297952240438357663e+00
2.534311526996159714e+01,2.711563358275259361e+02,-7.100793276143265942e+00
2.030250311529776752e+01,2.741545042619075616e+02,-1.214328782404923501e+01
1.844700393368145797e+01,2.751955128164523785e+02,-1.331593983864798858e+01
2.208589558791922514e+01,2.731501762914674600e+02,-1.073972672765637526e+01
2.383775641370485943e+01,2.722246847661077140e+02,-9.047176622290312054e+00
1.649572226139510533e+01,2.762418189926212335e+02,-1.431460926661163668e+01
1.271879311243149502e+01,2.759321490721616215e+02,-1.575747317727148200e+01
1.449918796120786268e+01,2.772838379697768119e+02,-1.515924488251916813e+01
-1.337401978250692736e+00,2.786432337920801388e+02,-1.918884306716009647e+01
9.733366823373117427e-01,2.792641923333884506e+02,-1.910919975304283724e+01
3.276453113598375211e+00,2.800671187308532240e+02,-1.877573943841319348e+01
5.930468344719166396e+00,2.803811275861885974e+02,-1.813977322976356277e+01
1.242031980145182501e+01,2.784039322339120872e+02,-1.595239990149534570e+01
1.038384857522123106e+01,2.797086572113187799e+02,-1.669802626637152798e+01
8.131953871624537200e+00,2.813203233518424327e+02,-1.751918092169220387e+01
2.439684023199804841e+01,2.690066224582859036e+02,1.801854676138633593e+00
2.288280754926873684e+01,2.677876292913750262e+02,2.897559961142878393e+00
2.549596269596340647e+01,2.685775065581576655e+02,3.093932502956402431e-01
2.646355506792511392e+01,2.696689497282930006e+02,-1.331927368222231678e+00
2.685108476809024225e+01,2.709850544697026180e+02,-3.308486338979125918e+00
2.635220602748483998e+01,2.724203376693047858e+02,-5.529302484761513092e+00
1.176418928426815746e+01,2.654959352151482790e+02,7.396384168588189034e+00
5.679444985434976445e+00,2.665353380090395490e+02,1.028110389053739837e+01
8.128926716492157922e+00,2.665796932382088471e+02,9.395477935086129051e+00
1.057970764218373461e+01,2.672342739438025774e+02,8.257428345784262547e+00
3.583563940109968371e-01,2.688045065400559110e+02,1.078244956629423967e+01
2.417878680163152438e+00,2.687557720202904648e+02,1.090421839444251617e+01
4.617666622071409321e+00,2.686557182818963270e+02,1.074843460538496132e+01
-1.125861446898963791e+01,2.775688321611701213e+02,4.928836996230819167e+00
-8.271838914032489498e+00,2.763432446164886755e+02,7.915985151859407765e+00
-9.832274927322611546e+00,2.785541907624339615e+02,6.668473440920516637e+00
-4.720598150769529155e+00,2.750168211383411858e+02,9.894677193049540520e+00
-6.391466256515077049e+00,2.769378545685513586e+02,9.213154884518717225e+00
-2.949415826139738073e+00,2.734986432691970890e+02,1.042137015357895891e+01
-1.158647523427063675e+00,2.720131302281245667e+02,1.082186042429651174e+01
1.115594588528036724e+00,2.710673615692488170e+02,1.110393371190353484e+01
-1.382049483543315915e+01,2.796720935553685763e+02,-1.588716827097974793e+00
-1.133335482737352606e+01,2.793608803300876957e+02,-1.504569687961212310e+01
-9.565676426923673148e+00,2.790443144032820442e+02,-1.681532741145315413e+01
-1.233801726288813683e+01,2.799780824002359054e+02,-1.330560127780167434e+01
-1.322641630864606554e+01,2.803530981589849489e+02,-1.112246345861879249e+01
-1.381257622958549547e+01,2.808784560589233479e+02,-8.870438301923613267e+00
-1.403624834447241199e+01,2.813210657879134260e+02,-6.338500598601994440e+00
-1.407056393258791616e+01,2.817736230295502651e+02,-3.834516175030802998e+00
-1.329034210334934940e+01,2.802298394912969570e+02,8.791158501306706174e-01
-1.244431518628119804e+01,2.789757560857149770e+02,3.021285207798561245e+00
-3.002150085277190072e+00,2.807633669994513639e+02,-1.919818523940278610e+01
-5.153038458277816147e+00,2.806647540388387938e+02,-1.880894284809957284e+01
-7.431276081258044286e+00,2.800978710784293071e+02,-1.804962634575384328e+01
1.477474908255874730e+01,2.680929738315211353e+02,6.559972615996414902e+00
1.267523455711240210e+01,2.679597750734104125e+02,7.395828007744241539e+00
1.675524406914069431e+01,2.679816829290977012e+02,5.842828212816598921e+00
1.878085479801944047e+01,2.680392185497373703e+02,5.118004532042025545e+00
2.100177618144801528e+01,2.683436773564699251e+02,4.174680591441461530e+00
1.467012752334201142e+00,-1.864905910331997418e+01,-1.593692070202531852e+01
2.147862244061353287e+00,-1.683426790088024205e+01,-1.381958120683717439e+01
6.906785021358805565e-01,-1.741950671069823642e+01,-1.468162852380720551e+01
2.275971266299228191e+00,-1.656810870273739766e+01,-1.276974862111385889e+01
2.753162126983358604e+00,-1.662520194131155193e+01,-1.158160536761529613e+01
3.363948113073062629e+00,-1.681778228582624735e+01,-1.029720429619570865e+01
1.672496400059705124e+00,-1.680795907521353172e+01,-9.336802762739701222e+00
-7.246645324124996179e-01,-1.847675027553777483e+01,-1.563897870321490302e+01
-1.955626121090607850e-01,-2.029324175235115391e+01,-1.712162248801907793e+01
2.087739832062163181e-01,-2.283601779378669505e+01,-1.854441167441513016e+01
6.419248982203109577e-01,-2.549539183289842015e+01,-1.991596706253940141e+01
-3.564858745375405036e+00,-3.000852119156260045e+01,-2.534620683794035045e+01
5.872221182418648766e-01,-2.815198448761372418e+01,-2.172251875129097343e+01
-1.068158708329004725e+00,-2.993673296887929780e+01,-2.414310107828045204e+01
-4.773229083083403879e+00,-3.035111876352922877e+01,-2.779012281936216056e+01
-5.725890005314109743e+00,-2.977689191899651178e+01,-2.975071827555639459e+01
-4.939091949747464128e+00,-3.036926560466266523e+01,-3.097680270761944143e+01
6.811897431470670838e+00,-2.721948953623676815e+01,-3.149303128239735727e+01
4.357899893065589225e+00,-2.752556262979165425e+01,-3.241949543609673867e+01
7.265208528656057041e+00,-2.965195978198915938e+01,-3.036968064257759181e+01
2.908432892179892093e+00,-3.013410501594901802e+01,-3.230170167273278992e+01
-4.053380746868196383e+00,-3.110492482467736863e+01,-3.190773248406024720e+01
-2.899141052653675388e+00,-3.169063656273990404e+01,-3.269072609158817500e+01
-9.222153419147609554e-01,-3.184936120442248964e+01,-3.284145407518636262e+01
1.770354097484151623e+00,-3.177972891638317776e+01,-3.220283079185577435e+01
5.622157829502269166e+00,-3.027507795361302101e+01,-2.335729904641431531e+01
7.561216341511221017e+00,-3.182623970954688630e+01,-2.759051539496633865e+01
6.679681950397405643e+00,-3.113630514883082157e+01,-2.462257984190445015e+01
6.335483209644486635e+00,-3.205330501962017564e+01,-2.645842906649999549e+01
6.545923095211172438e+00,-3.146736796072773146e+01,-3.012223280145426685e+01
3.708853685223896690e+00,-2.977563530730144947e+01,-2.285474066570095886e+01
1.371201730510861694e+00,-2.985280531352226063e+01,-2.338497642725838332e+01
2.513898850630459236e+01,2.735747144601980381e+02,-7.615061418559488260e+00
2.180148203785857319e+01,2.755931002935324159e+02,-1.115760590145232989e+01
2.000602459807979727e+01,2.766128885243811624e+02,-1.251025532633978266e+01
1.815649090206268923e+01,2.776364650692715941e+02,-1.363714048384302124e+01
2.346455035079183205e+01,2.745484176595613803e+02,-9.612124154418749455e+00
1.623024892375143935e+01,2.786910886618784389e+02,-1.457093354551594189e+01
1.426321447397704922e+01,2.797460421889471149e+02,-1.537604809433929809e+01
-7.118547046361101138e-01,2.811766679646324292e+02,-1.930112559256381033e+01
1.483352487449238311e+00,2.819689287651517020e+02,-1.915338946201125125e+01
3.894985507463935903e+00,2.824732252843911624e+02,-1.873480860227985545e+01
6.095414481039366450e+00,2.831024413406174745e+02,-1.820328722987240155e+01
1.232308696166280981e+01,2.809283382162806220e+02,-1.609823361705054623e+01
1.021602623678223054e+01,2.821566439575591403e+02,-1.686024335432198740e+01
8.243299069579867577e+00,2.839224879293072945e+02,-1.758758840377051769e+01
2.305171174062659034e+01,2.699216351229878228e+02,3.214010142990924024e+00
2.475835436507480125e+01,2.713663719302561503e+02,1.967779607413413956e+00
2.583644444368939119e+01,2.707354824519744625e+02,3.703644010587687774e-01
2.682112196588617792e+01,2.719649236972142603e+02,-1.450332768856508636e+00
2.706462906009790714e+01,2.733363166769419763e+02,-3.592661604798051300e+00
2.632094569530946515e+01,2.748373063164412997e+02,-5.954808275194993783e+00
7.044532512592514450e+00,2.686038114331556699e+02,1.014144212280362467e+01
9.288124905212848503e+00,2.687668936613146116e+02,9.159227550837501397e+00
1.130016819336651679e+01,2.699453251919562717e+02,8.357237543122085555e+00
3.537231553497935721e+00,2.709298383927198302e+02,1.117181508249204924e+01
6.035206008624070861e+00,2.707253928995132242e+02,1.071260314424380056e+01
-1.138012231496271909e+01,2.800114671546939462e+02,4.920461651860132513e+00
-8.088551209671084763e+00,2.785838835788541132e+02,8.284992404557925738e+00
-1.007461586575332646e+01,2.811232054937099747e+02,6.631742644142738285e+00
-8.349073781579193110e+00,2.807073788520051494e+02,8.290294675864943841e+00
-4.433920444310718523e+00,2.774464789015917177e+02,1.021020107116826381e+01
-2.645725153638530003e+00,2.760744288884776552e+02,1.070707315242143309e+01
-6.238384571405063639e+00,2.795761682999208801e+02,9.610339747710440861e+00
-9.179597188469106328e-01,2.745029571267216397e+02,1.107127073426425667e+01
7.230198809652979008e-01,2.733700856977035301e+02,1.129667274675828459e+01
2.726235192913369687e+00,2.732589228265770203e+02,1.146374955318744782e+01
-1.381734134124448943e+01,2.819412714504607607e+02,-1.407276658754931020e+00
-1.045320353332195396e+01,2.810334554323623593e+02,-1.619660071676331015e+01
-1.167211977755745522e+01,2.820951140081321569e+02,-1.473162445765185424e+01
-8.780807345180896561e+00,2.819423917700730726e+02,-1.746353353726077273e+01
-1.274091804523268223e+01,2.823062928886978398e+02,-1.266794481044682286e+01
-1.352797367945095175e+01,2.829561824062355413e+02,-1.062099913089974024e+01
-1.394109383322600593e+01,2.833379206932440297e+02,-8.253416224177730243e+00
-1.413001588862992008e+01,2.837660465874266720e+02,-5.609635799872288331e+00
-1.400948438544483565e+01,2.841526568693229819e+02,-2.752474772385809842e+00
-1.338869973241613920e+01,2.828285691315775807e+02,4.928575936681109937e-01
-1.257721215425907602e+01,2.813643041173950223e+02,2.834739211544570203e+00
-2.324291831122135221e+00,2.830737295752195450e+02,-1.938421439927149592e+01
-4.370993171730749083e+00,2.834575192465262603e+02,-1.913815284562272723e+01
-6.673588332945907808e+00,2.826013619168372202e+02,-1.842778676797218296e+01
1.569454068423625159e+01,2.701250954185387627e+02,6.533247632863488974e+00
1.362364918677188541e+01,2.701566648487261091e+02,7.328591203508445062e+00
1.761770934104605857e+01,2.698430438213239313e+02,5.810197345702028393e+00
1.971699419510025919e+01,2.699511129636630358e+02,5.027148491062218838e+00
2.159957251092303920e+01,2.708274494942078832e+02,4.326451548024214944e+00
-2.655373095329910171e+00,-3.098838358256129055e+01,-2.681959153115427341e+01
-1.488825750710596196e-01,-3.108528033925378509e+01,-2.561126298633183040e+01
-3.996139599011598875e+00,-3.118148361870473906e+01,-2.945179740697165016e+01
5.232134902599490545e+00,-2.996599870123719001e+01,-3.156642435490940812e+01
4.266194434910772770e+00,-3.166521044054853817e+01,-3.129361296104688961e+01
-3.090182869640543117e+00,-3.209872136223199135e+01,-3.062090237829147554e+01
-1.582676730322219782e+00,-3.267824095728846601e+01,-3.123749686690949545e+01
4.475608227179179721e-01,-3.268585648504655694e+01,-3.138888246277720384e+01
2.907528340503716890e+00,-3.261467464737473421e+01,-3.016556518058980174e+01
2.612244198761924707e+00,-3.116516320315271571e+01,-2.499020031394717734e+01
4.445116783035345520e+00,-3.177060893346649095e+01,-2.561619214288452895e+01
5.375979314931623065e+00,-3.234571715584347373e+01,-2.893909940523587210e+01
3.903361240224096917e+00,-3.258318261518545000e+01,-2.770472978206201020e+01
2.474642753936318584e+01,2.757821295079800166e+02,-8.339477735128028257e+00
2.322059052452673100e+01,2.769764896397556413e+02,-1.006403078775891657e+01
2.154658469769320916e+01,2.780338831369693935e+02,-1.157846766649616299e+01
1.974544908447402491e+01,2.790238180872659655e+02,-1.285574760737017463e+01
1.793835772629496006e+01,2.800391157616658120e+02,-1.390468543524983680e+01
1.605696252211378550e+01,2.811527980787783463e+02,-1.477890335829587087e+01
1.415337374877160137e+01,2.822678868930626095e+02,-1.552928122185034177e+01
-3.487091347944613062e-01,2.839302363056024774e+02,-1.942968649308420481e+01
1.868418272470972141e+00,2.844784784779727147e+02,-1.923019409933976576e+01
4.190581174251704510e+00,2.850639975353399791e+02,-1.877889030920090363e+01
6.543187410080752997e+00,2.857475069553535150e+02,-1.817647924817395122e+01
1.215051910235622756e+01,2.833681705754469817e+02,-1.627644732676029093e+01
1.021623458667533768e+01,2.846306169442606802e+02,-1.698505038960698243e+01
8.860005953242188426e+00,2.866092083472665308e+02,-1.751888944010737958e+01
2.350039375054876700e+01,2.722581880927669431e+02,3.370595880476198403e+00
2.525044884166782921e+01,2.736985814081730268e+02,2.005468539604667200e+00
2.624515112237602921e+01,2.729885673593378783e+02,3.733925104365365399e-01
2.718945912376019791e+01,2.741682187551886614e+02,-1.419179348414025377e+00
2.727820013911023622e+01,2.755405394530080798e+02,-3.692295884070019518e+00
2.566095782302575401e+01,2.770631445932247061e+02,-7.306543084708771119e+00
2.667416302585711918e+01,2.771153553072560385e+02,-5.631256753856646036e+00
8.585343580686695120e+00,2.706984150503678279e+02,9.784651307919451924e+00
1.255061838099005200e+01,2.720906995982982153e+02,8.115189385278192447e+00
1.026221499996615094e+01,2.722061604534176809e+02,9.236004681070452804e+00
5.024616844990820397e+00,2.729212857263266869e+02,1.121908421459497163e+01
7.527741339546929922e+00,2.727097376913862377e+02,1.051195631425279764e+01
-1.161138745440918285e+01,2.824634393171921829e+02,4.678028364149567686e+00
-1.063871229842679966e+01,2.838115658381762501e+02,6.179407891672367370e+00
-9.041734188839136266e+00,2.830153941906421551e+02,7.875117702801594177e+00
-7.000159442209895388e+00,2.821224718558599989e+02,9.457524511664338718e+00
-3.990021680418674777e+00,2.795168665075524927e+02,1.060966592841596068e+01
-1.830599455802310871e+00,2.785326539853597296e+02,1.117138420984937497e+01
-5.170498916669643563e-01,2.766838197306602751e+02,1.134861511929137023e+01
-4.897986385588069425e+00,2.816693517040912980e+02,1.049483047768336696e+01
1.535415166120850827e+00,2.756598633664587510e+02,1.161772204917979323e+01
3.916315609699818623e+00,2.752871265494534327e+02,1.163313090235646818e+01
-1.027272378390691898e+01,2.833859391513772721e+02,-1.646499933140812288e+01
-1.226122728574322451e+01,2.842757039808774380e+02,-1.391864928367992249e+01
-1.131967394301282326e+01,2.849753629316512615e+02,-1.545098711738866371e+01
-8.298613624671894229e+00,2.846685856799243197e+02,-1.786961408939144391e+01
-1.308865591302825493e+01,2.849983534912893219e+02,-1.231504559109451336e+01
-1.377353515089640723e+01,2.855152982871089762e+02,-1.024010194389268946e+01
-1.407249484287250851e+01,2.856075832796736336e+02,-7.870396089897099046e+00
-1.421267247342476736e+01,2.859697114172935244e+02,-5.111007669090380290e+00
-1.408339530324039401e+01,2.865774066350490443e+02,-2.799358039318137870e+00
-1.359961345155726420e+01,2.851376590111420910e+02,-3.013048898924308716e-01
-1.276098377386332317e+01,2.838337587509932405e+02,2.445920525900130205e+00
-2.606705494982957561e+00,2.855467873770234633e+02,-1.952475457597082809e+01
-4.568837391996265040e+00,2.865457340063791776e+02,-1.932910316009568419e+01
-6.166057589488044499e+00,2.849592930931674459e+02,-1.878634568423874285e+01
1.672028772379020367e+01,2.720559764831044731e+02,6.447607780141769496e+00
1.481083033692844531e+01,2.722724396658414321e+02,7.196301800904537416e+00
1.852259460150844461e+01,2.715795619549517710e+02,5.738917033922239952e+00
2.014785407910448356e+01,2.722542238518061595e+02,5.240727127185794032e+00
2.200462335179328832e+01,2.732095227321498783e+02,4.570132845592560500e+00
-2.090607077227485178e+00,-3.188786730836599048e+01,-2.824913402733683654e+01
3.402585695415822897e-01,-3.196254583237561775e+01,-2.696724219776819353e+01
-8.768745307864236338e-01,-3.265249049647167112e+01,-2.904062671484506097e+01
1.085934741524063440e+00,-3.289080131750974090e+01,-2.929985925930050428e+01
2.040589001281308157e+00,-3.238580297675053998e+01,-2.722789452528241583e+01
2.457586236365656163e+01,2.783836385153359743e+02,-8.824783897970410962e+00
2.306206671760322280e+01,2.794318611968672599e+02,-1.045574427317523813e+01
2.138195232461333006e+01,2.804116735783636045e+02,-1.188977607119407409e+01
1.961021162230866821e+01,2.814264135303156991e+02,-1.312890984375069259e+01
1.772810115712782419e+01,2.823954066088365948e+02,-1.416026319366111608e+01
1.577191950408840526e+01,2.837003933452018032e+02,-1.504884840294079140e+01
1.382901988504742263e+01,2.848205242230607155e+02,-1.579632416298523800e+01
-5.350553668277484576e-01,2.864270544767078377e+02,-1.960625812195920759e+01
1.867411191806386483e+00,2.868819328699690345e+02,-1.936818538396917333e+01
4.327855558909021738e+00,2.874873908275870349e+02,-1.887365296449709007e+01
6.666376433484682451e+00,2.881846473852352233e+02,-1.826219447486649727e+01
1.171741959100534203e+01,2.858962659439691834e+02,-1.655021289610616009e+01
1.094614690368448073e+01,2.880701559303852264e+02,-1.689869937665858757e+01
8.798701862801468820e+00,2.890795155429959777e+02,-1.764862201276959297e+01
2.387553793407493430e+01,2.745212838297587155e+02,3.612268364201312920e+00
2.546789487521410678e+01,2.759097546329459192e+02,2.425719347435308038e+00
2.671649122561296608e+01,2.753685350857633694e+02,4.092814526194761271e-01
2.756498637840811483e+01,2.764856122987557683e+02,-1.834798418768160744e+00
2.734799921211266494e+01,2.781633390109536776e+02,-4.227051041199350045e+00
2.606894903009479236e+01,2.793427377976569801e+02,-7.002067513724671954e+00
1.151725767001411427e+01,2.742609288707976702e+02,8.967347800310012218e+00
1.382758454012868476e+01,2.741553078838434203e+02,7.892867799828501063e+00
9.127625020450340187e+00,2.744309956709646485e+02,1.014639124389254654e+01
6.430661160618784677e+00,2.748666109111250080e+02,1.116592856807576695e+01
-1.191615055101938125e+01,2.850229873931579618e+02,4.211327944414845703e+00
-9.521498798401111685e+00,2.854678254168037483e+02,7.590023972406475750e+00
-1.098070343544729965e+01,2.864370815271590800e+02,5.815559025904007306e+00
-7.688632470333683244e+00,2.845072242442953439e+02,9.163015050876024858e+00
-5.656628270080609866e+00,2.840090603597283234e+02,1.041263908702488550e+01
-2.475197493141624960e+00,2.811114140610773120e+02,1.134185565071060253e+01
-2.223985999853113071e-01,2.804685802966857295e+02,1.186858132685686762e+01
8.158291781936881648e-01,2.783045887395763884e+02,1.179406520649079226e+01
-3.296210698955661655e+00,2.834164319678183119e+02,1.130449659637083037e+01
2.956563277856202987e+00,2.776025423658816749e+02,1.190601244378279411e+01
5.385539084361608886e+00,2.771534919326329032e+02,1.165170830436455063e+01
-9.962127895359131458e+00,2.856847791238447485e+02,-1.694940723325365539e+01
-1.229869920381884896e+01,2.869175586233350828e+02,-1.428240267311513279e+01
-1.097481370275518486e+01,2.875178758030693871e+02,-1.617403749591834483e+01
-6.964335941441614608e+00,2.871432306617266477e+02,-1.869835718425987636e+01
-9.009486104258122907e+00,2.875339104661217675e+02,-1.779462517768462959e+01
-1.335732907492133847e+01,2.874106184925453817e+02,-1.216297617259704467e+01
-1.397424742580259505e+01,2.880808034911859181e+02,-9.919587257168394956e+00
-1.423838741409054620e+01,2.876216740467868362e+02,-7.316348386569785589e+00
-1.432224227846293729e+01,2.885559521296093521e+02,-5.225408051154534661e+00
-1.412946863172820855e+01,2.888443230759154972e+02,-2.893464533125836624e+00
-1.368209496580443130e+01,2.875847030309611227e+02,-5.201879042154242683e-01
-1.299364735561273321e+01,2.862252766657509255e+02,1.879270242207462971e+00
-2.774507281389823277e+00,2.883252145636542423e+02,-1.970286581729344633e+01
-5.372335495186316479e+00,2.889449869145283856e+02,-1.935957147918344390e+01
1.817634336602556999e+01,2.735993681960950425e+02,6.155056656589143138e+00
1.615672600200822373e+01,2.743171774440342006e+02,6.996657487662782948e+00
2.026534258678383793e+01,2.743112989357156266e+02,5.500553076448570167e+00
2.231545631501446536e+01,2.754752527483194626e+02,4.832310082487436986e+00
