1.566506042596636661e+01,4.234611860500990588e+00,-1.860357028436622073e+01
1.553042909252138770e+01,2.340933459038977276e+02,2.794752774987195210e+00
1.759187672350427434e+01,2.333820815695170552e+02,1.532798653611624928e+00
1.375390628294667827e+01,2.354744477218894190e+02,3.738197411325486996e+00
1.924351096664000238e+01,2.330461685442796238e+02,3.095808515937328309e-01
2.209361652328188086e+01,2.335268696821233334e+02,-2.346092782604117133e+00
2.063130544837936498e+01,2.344073549516630521e+02,-7.986922554960429466e-01
2.324779268315722902e+01,2.351138700400073844e+02,-3.908418877951710613e+00
2.396618141881205233e+01,2.364018660949861896e+02,-5.609250791453231244e+00
1.588995588420667104e+01,2.409630178705512833e+02,-1.432136553172604643e+01
1.776070784856322859e+01,2.412686945207241251e+02,-1.350832793024122047e+01
1.259969369118315896e+01,2.427272949181094077e+02,-1.548967766737742124e+01
1.466954674883419685e+01,2.428901134123726422e+02,-1.477279115668799570e+01
8.282838839757635796e+00,2.435638367158796598e+02,-1.668918184980575958e+01
6.179448504931652764e+00,2.439251757316361875e+02,-1.708854198635638966e+01
3.976862822193425018e+00,2.441681915122337330e+02,-1.729208207242074380e+01
1.146142638986026085e+01,2.446614908533880453e+02,-1.584080371047819469e+01
9.514463714737452449e+00,2.450879295388310197e+02,-1.640735034524077207e+01
1.702802412295952195e+00,2.444292504221380113e+02,-1.717779814757627221e+01
-5.099515280571971232e-01,2.446832926466193214e+02,-1.668243508102068517e+01
-2.694674034963847831e+00,2.449502429644355459e+02,-1.577787907902178688e+01
-4.634532636024104590e+00,2.453648167611544579e+02,-1.447971902787754672e+01
2.233735054797198316e+01,2.372027688835109700e+02,-1.045630599702153773e+01
2.139360610049087441e+01,2.386051895355350041e+02,-1.131327620714683846e+01
2.405484059365881322e+01,2.373424911544229872e+02,-7.488741044385818668e+00
2.346096053636030021e+01,2.382967554530846144e+02,-9.100130337227483324e+00
2.047844545499146562e+01,2.401783069277459504e+02,-1.197813897828361895e+01
1.940937788503729777e+01,2.416955085613074914e+02,-1.263894423450868132e+01
5.740635289582556311e-01,2.352110297314630145e+02,7.946579291285861046e+00
2.917387688587630201e+00,2.347906607872073721e+02,8.228801430119601079e+00
-1.909311462925527891e+00,2.366406063727101241e+02,7.228452883416001562e+00
-7.018348222150194715e-03,2.372117475498229169e+02,7.852250841396016590e+00
-3.393556186808709185e+00,2.379022410701003594e+02,6.552172928926998985e+00
-6.209480050328105349e+00,2.410721987507053257e+02,4.398774097057110311e+00
-4.961972020546653539e+00,2.393708383614493584e+02,5.478388150200778739e+00
-8.949778257653646207e+00,2.435007439174555088e+02,-8.753072807543414768e+00
-9.482406821178388512e+00,2.449261913057661104e+02,-6.676785283281504668e+00
-7.392733217834403625e+00,2.427989553119209347e+02,3.171928795580516880e+00
-9.255433353198020185e+00,2.448249775828311670e+02,-3.067815371414610581e-01
-8.544978009755187287e+00,2.435551540188759816e+02,1.468600774992220082e+00
-9.641046036315557899e+00,2.460087048253114972e+02,-2.148878250085775932e+00
-9.765864170832568192e+00,2.466947610933773660e+02,-4.737649556311835930e+00
-8.393947178697098721e+00,2.450824739727950146e+02,-1.025461704310398048e+01
-6.366808255661137395e+00,2.459790367365661723e+02,-1.294186304009051725e+01
-7.773602879653658704e+00,2.467846169129534815e+02,-1.128471440217619381e+01
6.599969277545071122e+00,2.360959271524903897e+02,7.771251703397488164e+00
1.155232670626135594e+01,2.353420139035836485e+02,4.869732085087282059e+00
9.785984555341721958e+00,2.364959956901315081e+02,5.950291698061023205e+00
8.076150378869463964e+00,2.376132327644751854e+02,7.086326482887132627e+00
4.687341125572441314e+00,2.367514967926206850e+02,8.243618695853195177e+00
1.780700540325496561e+01,2.779204504915985474e+00,-1.682189514915303619e+01
1.704082467288424851e+01,2.646845571894586691e+00,-1.811510604673870972e+01
1.919090493498056560e+01,1.082612743721543591e+00,-1.432904649590451740e+01
1.884304412855602706e+01,1.003769734215339327e+00,-1.599345659816684417e+01
1.989276853195915606e+01,-7.053812533926562267e-01,-1.134819770092917679e+01
1.990513184210114161e+01,-7.838525441028734164e-01,-1.324132316797575371e+01
1.968943157392555321e+01,-3.052135872343493261e-01,-9.349299549753574468e+00
1.943110328581322577e+01,1.021172053879868535e-01,-7.084935472486620256e+00
1.911603778845640988e+01,1.203937023533552253e-01,-4.656001901825110423e+00
1.051554418035795635e+01,5.649173133083520426e+00,1.236777251564176971e+01
8.890606258785826554e+00,5.561042586503804230e+00,1.400808740878625791e+01
1.156937252150312290e+01,3.820199147436728282e+00,1.192121474552064875e+01
1.268670459547222151e+01,2.101201244258261269e+00,1.132798911410372611e+01
1.764265460493961157e+01,-2.507256027978681523e-01,2.109689335216430095e+00
1.824809906208571419e+01,-2.813570150150668248e-01,-1.457029102006330845e-01
1.872758771273792178e+01,-1.055393051106663371e-01,-2.362436845915699024e+00
1.689626455133312177e+01,-5.761651977363069221e-02,4.337146295428691900e+00
1.599362406195765729e+01,1.677827278060561311e-01,6.521678276108257677e+00
1.486104149375691819e+01,7.011260029825403528e-01,8.580462324353568704e+00
1.389148875528557880e+01,-6.282888270625619498e-03,1.077258785378614192e+01
-4.211587393324015771e+00,2.026490813979101802e+00,1.181472606309208295e+01
-5.705991891236237734e+00,2.400871769274901979e+00,1.130297166290229605e+01
-7.312517262020042708e+00,2.395908669485104170e+00,1.056509503754618784e+01
-8.887477396470846003e+00,1.948368886761466356e+00,9.610128947118870002e+00
-3.034899739024036869e+00,1.586232629582182696e-01,1.226286495006470645e+01
7.161931328487028736e+00,5.300500562529000703e+00,1.531087361607792374e+01
5.310375539134694733e+00,4.660596532069596343e+00,1.606070070875124856e+01
3.483612725507631680e+00,3.856631560825988014e+00,1.590940067524559609e+01
1.812673834176925070e+00,2.818430608986814079e+00,1.513921317134098743e+01
5.754449103046930247e-01,1.802580981997427223e+00,1.424834498096869950e+01
-6.721824345238820442e-01,9.679126075599224777e-01,1.337226513566105268e+01
-1.432098344261136802e+00,-9.906503643195367914e-01,1.303421890692965768e+01
-1.375244331407602516e+01,-4.815370143705788308e-01,2.348536949945877250e+00
-1.337773580684069685e+01,-2.596844249504921542e-01,4.021960021996682677e+00
-1.280584291486607285e+01,-8.350797427951039964e-02,5.681241711565514940e+00
-1.207829674350304217e+01,-1.335932865155626814e-01,7.294921776429207583e+00
-9.688612728191557721e+00,2.259885697667893822e-01,9.700055538964875268e+00
-1.122973982324045039e+01,-6.007271585814457637e-01,8.800424460306505381e+00
-1.470039976774338086e+01,-2.646135719265589437e+00,1.454612029187129174e+00
-1.470995184578386272e+01,-2.616904225082137714e+00,-1.530863692077439886e-01
-1.494453985554883246e+01,-3.335202951343421596e+00,-1.746270250630017618e+00
-1.495712829541638200e+01,-3.835767833313009412e+00,-3.581745451019240356e+00
-1.483317224812829238e+01,-4.317807902776025664e+00,-5.537380713521455888e+00
-1.452273616905358011e+01,-4.504054664089737869e+00,-7.508956309600621104e+00
-1.414238927524883849e+01,-4.625764238784022098e+00,-9.428825706834167875e+00
-1.372822432939557658e+01,-4.840420042563121861e+00,-1.136432294333182469e+01
-1.285751410223947389e+01,-2.646937677039642889e+00,-1.294358032973211614e+01
-1.199208474923328183e+01,-1.511455652551516593e-01,-1.375685298062897743e+01
-1.103562851635264863e+01,1.017938376757252072e+00,-1.567138929960313476e+01
-9.930149043880469151e+00,1.810879809393691531e+00,-1.743825141822956937e+01
-8.834892379962610676e+00,1.829270477018447139e+00,-1.898444523683446761e+01
-7.404092203393798144e+00,1.607638721598327436e+00,-2.047642036605395433e+01
-5.839346183363382181e+00,1.127608076378324498e+00,-2.172853264383265071e+01
-3.547112382782202644e-01,2.375637651507553016e+00,-2.250333017469333541e+01
1.738824466530800805e+00,2.887074448801698168e+00,-2.234383898136072588e+01
3.833806441825146294e+00,2.949873553129185311e+00,-2.230472572225150785e+01
-2.429355901286960773e+00,1.402463379674216526e+00,-2.272806487393807728e+01
-4.143850729427754231e+00,2.074335027459692782e-01,-2.290109074087431296e+01
6.000505087106791535e+00,2.817596128800254007e+00,-2.220026474151815776e+01
8.251484266328770190e+00,2.626228666583578786e+00,-2.198763660287358590e+01
1.064803657336201326e+01,2.636738338938094728e+00,-2.151651715135039922e+01
1.279964142131934324e+01,2.788796697203213881e+00,-2.077985729984484209e+01
1.470515294999228217e+01,3.027317528330928376e+00,-1.983223129111794947e+01
1.618489184421962079e+01,1.801369689069424851e+00,-1.944605933557511790e+01
1.728908740250532361e+01,2.354690931430564262e+02,1.850966787863432828e+00
1.569891219332242649e+01,2.366514201610297334e+02,2.811467765249823003e+00
1.898919235923617421e+01,2.355803098105504887e+02,6.129174209591745637e-01
1.404424911469603998e+01,2.381162001725123503e+02,3.711082387687659079e+00
1.194199425096016576e+01,2.374737820984814221e+02,4.734710289415477114e+00
2.203405232552041682e+01,2.357643534739613358e+02,-2.107741300784642391e+00
2.045792549604926691e+01,2.366746747810402383e+02,-4.860210469690109392e-01
2.319425927808655885e+01,2.377031713290064658e+02,-3.536268029329029616e+00
2.401906486232481086e+01,2.388092847855241416e+02,-5.491770573116390608e+00
1.663220824472637815e+01,2.431027172843515416e+02,-1.398805564747529218e+01
1.842633848756811688e+01,2.434819415081565523e+02,-1.314344403789218241e+01
1.357010009883157764e+01,2.448431963108758112e+02,-1.515292818378363116e+01
1.549535442572292077e+01,2.450143140421921828e+02,-1.443521129821962212e+01
7.388011721255315578e+00,2.457551310390455797e+02,-1.689719708332259884e+01
5.293229325816920294e+00,2.461430686479787369e+02,-1.721463970625465834e+01
3.077245507991616336e+00,2.463984748570568399e+02,-1.729595394758593585e+01
1.243505704533496470e+01,2.466505628686007867e+02,-1.553438068915537151e+01
1.046499583269671518e+01,2.469664771118220585e+02,-1.615084839253382754e+01
8.547947415066888155e+00,2.475444647510156813e+02,-1.666388253369139960e+01
8.416557502849943972e-01,2.466386745957887285e+02,-1.705475252458472823e+01
-1.325134639879756548e+00,2.468702590059981787e+02,-1.641597978736627539e+01
-3.308015211395000321e+00,2.472030222687272385e+02,-1.541767078799334456e+01
-5.174761709276244126e+00,2.476948607968438125e+02,-1.407879642343370286e+01
2.256539451897088711e+01,2.395222558303287315e+02,-1.023721553024356368e+01
2.187191973264780742e+01,2.410073600988554858e+02,-1.089753136584015536e+01
2.411825781069164520e+01,2.397673376359123267e+02,-7.423643161798267442e+00
2.350899753196004482e+01,2.406194219789606734e+02,-9.064572953125129118e+00
2.087982983220792121e+01,2.425173336546286293e+02,-1.167751888328209553e+01
1.998788088411233232e+01,2.439939569273053905e+02,-1.225857980923263568e+01
2.356747107260257934e+00,2.370928477819180955e+02,8.259055356712584839e+00
-1.281846824568743770e+00,2.390054542212477031e+02,7.553553103807926661e+00
1.373552912972701989e+00,2.391318801330606618e+02,8.176945929093395904e+00
-3.184989512741675632e+00,2.403013872499660692e+02,6.754683853593113518e+00
-6.069712958984622375e+00,2.435785311554397765e+02,4.593895420390060380e+00
-4.650278186660548485e+00,2.418046946945674733e+02,5.788066153965885086e+00
-9.127725288922565738e+00,2.459696572912168335e+02,-8.525309480979972321e+00
-9.544217462494499316e+00,2.475262838156293697e+02,-6.849999841675066925e+00
-6.886623634168138608e+00,2.455575973128394480e+02,3.820955104879852904e+00
-7.985811307287926653e+00,2.451162399149222040e+02,2.464079220622843458e+00
-8.868383428942033575e+00,2.465181088879463402e+02,9.342180624857148175e-01
-9.423486696277755925e+00,2.482716184604396403e+02,-5.754063965677471693e-01
-9.782962476084794190e+00,2.482389029363663155e+02,-2.936575015867846083e+00
-9.806735843194019253e+00,2.493710450396463330e+02,-4.946207144204228356e+00
-8.821967149468020963e+00,2.478487402029665247e+02,-9.422623639768724857e+00
-6.779158000297746511e+00,2.484369847794900750e+02,-1.250798800107073205e+01
-7.997531949950335672e+00,2.491753100431501480e+02,-1.095670412710880370e+01
6.283342140688261246e+00,2.388589790441666025e+02,7.905601281335945529e+00
1.003614190641919635e+01,2.388606407342806506e+02,5.889208271994590405e+00
8.340984600906670821e+00,2.399224790181278877e+02,7.047068558812719097e+00
3.901934173675140283e+00,2.391028824503128760e+02,8.290965498872790107e+00
1.833945322112764131e+01,7.562982926171279985e-01,-1.750722155914798606e+01
1.754127299572894572e+01,4.080326120788910771e-01,-1.891392327057960188e+01
1.970323464179508832e+01,-8.048112597799770285e-01,-1.502300044781158661e+01
1.930815064116992730e+01,-9.361588235658437895e-01,-1.665523079859410061e+01
2.039582290602233883e+01,-2.936922844332905846e+00,-1.204706105769801638e+01
2.035399473291981565e+01,-2.707669847871901680e+00,-1.012278676451929016e+01
2.027254970880868612e+01,-2.646721309164450364e+00,-1.395630974873016683e+01
2.008181722845103678e+01,-2.003691286008586481e+00,-8.077815829125402303e+00
1.976965346788426459e+01,-1.765986421772226089e+00,-5.717514145360883759e+00
1.944976986593645307e+01,-2.080426031644490692e+00,-3.444148861273497175e+00
1.013655320118897407e+01,3.548113785075146964e+00,1.372597331129919596e+01
8.558496750053613766e+00,3.253105328348068426e+00,1.526506915271414755e+01
1.133717454395025470e+01,1.737358310566579078e+00,1.328709272855271983e+01
1.260717395399000296e+01,8.421001206560596586e-02,1.260235655981754022e+01
1.854499976507230130e+01,-2.524548068423051461e+00,1.017856533142659003e+00
1.792209789354189198e+01,-2.468352545913947260e+00,3.372692150540309797e+00
1.904049925251549524e+01,-2.481035782806091383e+00,-1.175413053532444962e+00
1.720792998760031267e+01,-2.224565581065512276e+00,5.456979852289226329e+00
1.638979724126659931e+01,-2.029319682362910271e+00,7.387708444924221851e+00
1.536171574163076059e+01,-1.288434030913524708e+00,9.018599780526276533e+00
1.477829241622992384e+01,-2.320450182700062314e+00,1.088948125781822185e+01
1.323127300972622677e+01,-2.005713335472769643e+00,1.312340346791232903e+01
-4.632245269133388632e+00,-5.478234599507292302e-02,1.177864232103953057e+01
-6.233839292515781949e+00,3.605717729672939242e-01,1.133051032536769220e+01
-7.947530046533564985e+00,5.215985697221796613e-01,1.066091715405430485e+01
-2.563740854308635964e+00,-2.117498891005428874e+00,1.258630702018131053e+01
-3.862365454767150652e+00,-2.297935152400798486e+00,1.214055014025704082e+01
6.678699827540349077e+00,3.071110722682509397e+00,1.634287903395119912e+01
4.491321326000413450e+00,2.077125755101003168e+00,1.672098665185473720e+01
2.778189701676815559e+00,1.602876058250071178e+00,1.600850705196694079e+01
1.481765655616399613e+00,1.785034028939191941e-01,1.512836511376562676e+01
7.553318447516055301e-02,-5.182005460459233603e-01,1.397910518537603508e+01
-5.086443643723956853e-01,-2.791287316648283223e+00,1.370547761968451717e+01
-1.704566096196995950e+00,-3.854903519094547981e+00,1.308678398117297448e+01
-1.442473747988035271e+01,-2.416837607824011247e+00,3.158662101941788425e+00
-1.399696852805500669e+01,-2.209520675492796293e+00,4.751344760664875544e+00
-1.346667281499209068e+01,-2.024636780909613520e+00,6.319234163234167312e+00
-1.272162337823612788e+01,-1.998881276644253191e+00,7.918203598254461184e+00
-1.024122732790232249e+01,-1.495375193374909983e+00,1.019588633819333445e+01
-8.606460464080967654e+00,-1.160356144064078165e+00,1.088903057074866609e+01
-1.183297689911147899e+01,-2.314347077315041190e+00,9.468978947514214539e+00
-1.552975744409907577e+01,-4.616726914520399738e+00,1.745103685751261402e-01
-1.539955371588624544e+01,-4.431165699854841655e+00,2.195095337738208752e+00
-1.573800878716998142e+01,-5.348863434475996215e+00,-1.828155775258897275e+00
-1.569627610214795510e+01,-5.978896129145246263e+00,-3.935113557309548149e+00
-1.549155430669527078e+01,-6.579434506578893505e+00,-6.072102173737024877e+00
-1.504366203258396695e+01,-6.727513623461370607e+00,-8.100320346173596420e+00
-1.455177066840569466e+01,-6.932513499990734296e+00,-1.015481513140993286e+01
-1.330773145614670483e+01,-5.045803816656952101e+00,-1.311490248451206853e+01
-1.404593482735645082e+01,-7.227694198806207559e+00,-1.216993866966857851e+01
-1.266097616052580577e+01,-4.032572405321742437e+00,-1.470399940693519270e+01
-1.195447808105036458e+01,-1.540949491704681318e+00,-1.508118760624564558e+01
-1.089893657954611683e+01,-4.250338502698891574e-01,-1.704708086379200083e+01
-9.828726364602133003e+00,-1.937390711755604400e-02,-1.871913334191171074e+01
-8.609208870350833820e+00,-2.201011367288252529e-02,-2.016867500833682669e+01
-7.194509987913484395e+00,-3.140209617099003481e-01,-2.158912117810397291e+01
-5.637160913566344078e+00,-1.057351843012499515e+00,-2.293580274449882239e+01
-7.102931741061624393e-01,4.292047359747321877e-01,-2.340189976354059453e+01
1.332168260431650708e+00,1.063777948708699128e+00,-2.318940468818781042e+01
3.411770241718592445e+00,1.138993840922459810e+00,-2.316187740875247769e+01
5.548507975301429695e+00,1.034378223816409204e+00,-2.308509347782431576e+01
-2.469629901206168654e+00,-7.219028286320963161e-01,-2.376173872023999323e+01
-4.171391143330694717e+00,-2.087050508382553460e+00,-2.406613327856841522e+01
7.839910087175677944e+00,7.861544888666145425e-01,-2.294471333420784021e+01
1.012791555200411864e+01,7.150690696596448959e-01,-2.255418355507628192e+01
1.254342824738047568e+01,7.456281388494652163e-01,-2.186095533947108294e+01
1.458502060125606903e+01,1.001665893392327256e+00,-2.087913264887036036e+01
1.633844241858937352e+01,-2.618320629031565261e-01,-2.043329652948754216e+01
1.766392676067186329e+01,2.376297309220156819e+02,1.698980068921086328e+00
1.615687009079245229e+01,2.389694473842956768e+02,2.647501312883070668e+00
1.923887106004005076e+01,2.382590858349452674e+02,6.299119346107922013e-01
1.222425026310910035e+01,2.397943904104380124e+02,4.739536973593085456e+00
1.435165450602417003e+01,2.404873111290367547e+02,3.672455131213405721e+00
2.182675743211175501e+01,2.378208081913835485e+02,-1.684779954806968405e+00
2.068775340917287409e+01,2.392338753385319876e+02,-4.571047187555663527e-01
2.234779525449646798e+01,2.398491983741601246e+02,-2.116078674612301924e+00
2.351550045439970660e+01,2.403525049878372499e+02,-3.902135538698557227e+00
2.416052137740083694e+01,2.413600512756034107e+02,-5.848665429524608328e+00
1.743503325785844282e+01,2.452471839541001941e+02,-1.359882570264737467e+01
1.896969968064895795e+01,2.459127848534692191e+02,-1.282781399013026125e+01
1.464679219919624487e+01,2.471168282665851166e+02,-1.474103169751627718e+01
1.656188415244744760e+01,2.469904665001349144e+02,-1.396596697646993057e+01
6.497665444881164376e+00,2.481590142552108773e+02,-1.708051462220951677e+01
4.404287317602019414e+00,2.483985627004828416e+02,-1.729037784103258701e+01
2.077914565908759670e+00,2.486231776430690275e+02,-1.723427712197396389e+01
1.320382848095131578e+01,2.485309846727438980e+02,-1.525966148321668037e+01
1.136997835458725348e+01,2.489259918450695750e+02,-1.588633374290221489e+01
9.476834059790704146e+00,2.494590446514622784e+02,-1.642843868519177875e+01
7.608982110836340240e+00,2.501007911674347213e+02,-1.685471351937052731e+01
-8.097682638952008460e-02,2.488682799785362647e+02,-1.683258294821751022e+01
-2.112677447709492284e+00,2.491757627250602809e+02,-1.608349924007345066e+01
-3.987913234124924600e+00,2.494591704026028083e+02,-1.497143028372762075e+01
-5.659962718985265262e+00,2.500507814626907646e+02,-1.363651029677689408e+01
2.311201373439662632e+01,2.424631453071733631e+02,-9.626759420193980787e+00
2.207935741825697917e+01,2.431998951098922248e+02,-1.068845356135004110e+01
2.410424350629143220e+01,2.422452935229953255e+02,-7.801993789604658502e+00
2.158712591452795238e+01,2.450360842865147788e+02,-1.109717852161726626e+01
2.045246146356497974e+01,2.459560044055758112e+02,-1.193663330764430164e+01
-1.599181455618559511e+00,2.412969410003624944e+02,7.567209018535235643e+00
4.359644875044494938e-01,2.411296134618837925e+02,8.147845761863230507e+00
2.774319903922695563e+00,2.411921154967220957e+02,8.437426170137406700e+00
-2.929762576502784377e+00,2.430494271744134096e+02,6.984810610538534803e+00
-5.475400793085369422e+00,2.461869181478665780e+02,5.207509967726889677e+00
-4.592477811358086193e+00,2.440989944386099637e+02,5.874324482589917906e+00
-9.476432979565377224e+00,2.494758030079084676e+02,-7.592455715078379797e+00
-7.777546375425482772e+00,2.473533717628051249e+02,2.878940326112730652e+00
-6.461423845659426846e+00,2.479245466336098502e+02,4.389157866098065242e+00
-8.617273920113831309e+00,2.488587339309071353e+02,1.653818384242198292e+00
-9.729919683416445864e+00,2.503356372642696783e+02,-2.237527447680432324e+00
-9.249227429119025956e+00,2.507729562098832048e+02,1.717930497230351072e-01
-9.730027432342563287e+00,2.512931496496331931e+02,-6.202570675198916028e+00
-9.871549404602077971e+00,2.518898825614803911e+02,-3.994817522035263746e+00
-8.926209289248218326e+00,2.503766514973447954e+02,-9.276306171437886050e+00
-6.904989968343183904e+00,2.510480096465678344e+02,-1.234528169946777254e+01
-8.113156747305694694e+00,2.513609238301288542e+02,-1.074753542016507168e+01
5.108919551923500002e+00,2.410862660761237066e+02,8.350306749365341119e+00
7.079467303547129831e+00,2.414321101354919108e+02,7.900933589966125936e+00
1.050795343567310347e+01,2.412175263752974672e+02,5.793868167978397210e+00
8.939196884453377123e+00,2.421499796673275000e+02,6.911292907716910960e+00
1.873919038597590259e+01,-1.432564571307853640e+00,-1.824026077258139011e+01
1.785349186053458226e+01,-1.591368606754369530e+00,-1.968098913273716022e+01
2.001316687481838485e+01,-2.730696128016739443e+00,-1.576507808616436535e+01
1.959532848740646216e+01,-2.977868184024731413e+00,-1.730236158096385068e+01
2.082447448414662006e+01,-5.232991258644346999e+00,-1.080925877052230888e+01
2.062828799619003206e+01,-4.829849371467759056e+00,-1.292663892113543511e+01
2.069592461874711020e+01,-4.429671300581801141e+00,-8.827222356706815987e+00
2.039536569546799427e+01,-4.378542478302813734e+00,-1.477362428890613089e+01
2.038779946950220889e+01,-3.638370266481746995e+00,-6.824757101808572202e+00
2.017011877531074759e+01,-4.011399674789760894e+00,-4.714133350761830599e+00
1.984678626256602030e+01,-4.429375299053999626e+00,-2.536443702460466909e+00
9.977860538279021085e+00,1.316300786345534490e+00,1.502147820450425364e+01
8.288484738944294605e+00,8.522115629587236896e-01,1.655891445115486249e+01
1.153844839478057338e+01,-5.392251269702086347e-01,1.436203503076856691e+01
1.950512057022883283e+01,-5.022913325832972120e+00,-2.491068051238549685e-01
1.881828922857837227e+01,-4.555840617709401741e+00,2.211062881497582566e+00
1.819100021163711389e+01,-4.626769326197163856e+00,4.824106301610964209e+00
1.737208918222826171e+01,-4.308233913875319843e+00,7.044014761411045100e+00
1.632224506091453975e+01,-3.695793400638662796e+00,9.013870098817955423e+00
1.605353879415274321e+01,-4.938914362004233283e+00,1.075647190317809532e+01
1.466053884964153653e+01,-3.870340350059347401e+00,1.237890066561308977e+01
1.360576371802135398e+01,-4.376565216563520266e+00,1.444327836103417617e+01
1.195017524132634179e+01,-2.706993516436424940e+00,1.534846434483401723e+01
-5.301136901034924520e+00,-2.115854795502762009e+00,1.175972953983844249e+01
-6.939036641957233797e+00,-1.456975370383685409e+00,1.139596231590011044e+01
-3.030634586502881866e+00,-4.583378979010777066e+00,1.257796381502440042e+01
-4.408756281662453702e+00,-4.739160676292744512e+00,1.215528331172423648e+01
6.167632992213722076e+00,1.131486043328611579e+00,1.722106318616536313e+01
4.664998220449628974e+00,-4.984966853130357034e-01,1.757294016276519244e+01
3.098477245035549998e+00,-2.844070934893769831e-01,1.658303909729806946e+01
2.225748365533164019e+00,-1.934225799878220187e+00,1.596080064340614157e+01
8.449213479921091619e-01,-2.083959046971501472e+00,1.469658681919241516e+01
4.627517493495609813e-01,-4.535484484644435099e+00,1.446902802211135075e+01
-7.379481393179627702e-01,-5.566043982360325160e+00,1.368651832906487265e+01
-2.049685126035098115e+00,-6.484285123619273783e+00,1.306729415178200426e+01
-1.512613606764764285e+01,-4.348356201792805464e+00,3.911884988114240791e+00
-1.470476808936538404e+01,-4.134883038060253924e+00,5.495540214174497784e+00
-1.411801649895100041e+01,-3.814619576936788548e+00,7.034156918798341707e+00
-1.326754275498891644e+01,-3.590801093079118544e+00,8.782005259887913695e+00
-9.153203903412279629e+00,-2.890996193547914928e+00,1.131799203792115094e+01
-1.077970795291760098e+01,-3.108450135673274772e+00,1.081678774049006364e+01
-7.590966349154843584e+00,-3.229116816018601455e+00,1.163880609218863071e+01
-1.236074044473946643e+01,-3.951819758488884560e+00,1.026889062892522198e+01
-1.616120135109223455e+01,-6.189478260213123306e+00,1.444453878952815629e+00
-1.633562616957667402e+01,-6.730466722172035787e+00,-2.895278984247973142e-01
-1.609103309441104557e+01,-6.287139068929232799e+00,3.188737017503691540e+00
-1.642904564119292488e+01,-7.438274197144993494e+00,-2.301480706290996103e+00
-1.636202918804853823e+01,-8.266503634822548463e+00,-4.396447243863377707e+00
-1.613250555673160491e+01,-9.067858386986767272e+00,-6.506487723155843561e+00
-1.548770445058530143e+01,-8.897716700885588637e+00,-8.815286391877709349e+00
-1.494245927509318506e+01,-9.224445131767222250e+00,-1.091361451156287110e+01
-1.337594820333770684e+01,-7.008661174946442252e+00,-1.419851073625763149e+01
-1.428936713194392283e+01,-9.418682293240795644e+00,-1.295069513272276751e+01
-1.251818436775089083e+01,-5.280830106580518546e+00,-1.605932431344716704e+01
-1.178734551172669143e+01,-2.759190991147658423e+00,-1.661630346612450992e+01
-1.079421657297866588e+01,-2.044838861628681670e+00,-1.845348853529650412e+01
-9.683682918543357943e+00,-1.865184891960021574e+00,-1.998717596610883618e+01
-8.385417430435857966e+00,-1.860016943831826808e+00,-2.134543055005647716e+01
-6.948180014231571278e+00,-2.291319622918535970e+00,-2.275977900256396325e+01
-5.726720181531298692e+00,-3.468556567029525084e+00,-2.409536289097842854e+01
-5.965981817722294522e-01,-1.629467171691025840e+00,-2.444986450546552703e+01
1.011436349030255144e+00,-6.830951441666854862e-01,-2.408395726737096965e+01
2.940041260089785169e+00,-6.488539643892323738e-01,-2.410057164981844835e+01
5.102499945288833771e+00,-6.811456106063928928e-01,-2.402532784978725644e+01
7.409488072737261177e+00,-9.795830158589673431e-01,-2.391294725891538064e+01
-2.304425484147834879e+00,-2.800175949903664474e+00,-2.481688780522080151e+01
-3.940206284657357116e+00,-4.233456435200199763e+00,-2.517322105033928636e+01
9.867945842633005782e+00,-1.286090249987942968e+00,-2.363022530347866024e+01
1.207413674229589873e+01,-1.058847515237802739e+00,-2.291831296134571261e+01
1.459476396718449109e+01,-1.086083545606951972e+00,-2.193238243560680090e+01
1.662859732128348611e+01,-2.206543679085449128e+00,-2.123483789101341301e+01
1.802046603111982748e+01,2.400846795831952534e+02,1.590868451799401839e+00
1.645125004846613592e+01,2.411824932418520291e+02,2.599429133424164817e+00
1.954871441847719282e+01,2.408524786968529838e+02,6.034580196276699837e-01
1.250031358180962471e+01,2.422192628476929599e+02,4.746604512644949203e+00
1.462927299739614106e+01,2.427311748008035295e+02,3.653881373326843374e+00
2.117853191601708218e+01,2.415610586948465084e+02,-7.130770924019813606e-01
2.262921141565154315e+01,2.421930666137337482e+02,-2.281772806271142429e+00
2.375224614554758418e+01,2.428409297149416375e+02,-4.189810633008379526e+00
2.432672249030360945e+01,2.438263418251702603e+02,-6.210769844174329535e+00
1.817343673865276443e+01,2.480591317368406976e+02,-1.322412568489184537e+01
1.988506217192957948e+01,2.479113310888315311e+02,-1.228159159402359357e+01
1.462369034999658801e+01,2.498293916325969519e+02,-1.474844459000401287e+01
1.635327651328839238e+01,2.490245807802789386e+02,-1.404854081828416312e+01
5.607159592997625452e+00,2.504448587679263198e+02,-1.716229117315780428e+01
3.313689801959338155e+00,2.505289667052350921e+02,-1.730053041933453528e+01
1.044287533616699903e+00,2.509516556587196874e+02,-1.707087928405850619e+01
1.269973493257544561e+01,2.507377691867403087e+02,-1.545424675624037292e+01
1.072714972741245276e+01,2.513132040802067309e+02,-1.609741514647910066e+01
8.793548070447755549e+00,2.519417893464625422e+02,-1.660173158487669554e+01
6.803132744963724221e+00,2.526248100060577144e+02,-1.699120076665046497e+01
-9.919403172945191471e-01,2.511504007530095066e+02,-1.652889587984063979e+01
-3.034601859593774265e+00,2.514418290030287437e+02,-1.556614916960141670e+01
-4.790446194927332257e+00,2.518317191516481444e+02,-1.436780096690369923e+01
2.396350561920405653e+01,2.444044127943220985e+02,-8.259325998454347229e+00
2.295351284824862859e+01,2.448670292366079480e+02,-9.785196474465720939e+00
2.260188435605097368e+01,2.468964236057461790e+02,-1.015441771444537267e+01
2.140734463937572229e+01,2.474692768852814595e+02,-1.123287109653369065e+01
-6.252866288571485853e-01,2.433647301092251780e+02,7.984422116551526116e+00
1.631348424335303804e+00,2.432494337825917796e+02,8.440966660441375780e+00
3.987867449417276777e+00,2.432967455705959310e+02,8.638567300190487686e+00
-1.826281049443635673e+00,2.452308217276335824e+02,7.657660162207708510e+00
-3.717537265477688813e+00,2.459561989416476706e+02,6.549464425959757641e+00
-4.686877868221079879e+00,2.483974902900882000e+02,5.972735181939664351e+00
-9.394076067771733207e+00,2.522043823285518442e+02,-8.060742912131843241e+00
-7.467934822284108876e+00,2.495979229000903956e+02,3.397122021003244008e+00
-6.073561884634846919e+00,2.499024993015489713e+02,4.891505870490575170e+00
-8.278241585287560156e+00,2.513367426479555320e+02,2.331802207789378301e+00
-9.688811699614445772e+00,2.526185232931951532e+02,-1.534210952940946893e+00
-9.071946517695295142e+00,2.530636115868242086e+02,7.487780964637420489e-01
-9.808939691679173123e+00,2.535481448759054501e+02,-6.089104899354139455e+00
-9.934740757720907922e+00,2.540422514653971859e+02,-3.385717339374086698e+00
-8.719082295072873023e+00,2.530653033103297957e+02,-9.705927133699120191e+00
-7.563371724368115778e+00,2.533288364093009193e+02,-1.151113109851579530e+01
-6.063368795035875003e+00,2.532257712070906734e+02,-1.322509353789977382e+01
6.237834718605019368e+00,2.434499937021769824e+02,8.342366536888262019e+00
8.262564635104070021e+00,2.439844629893467811e+02,7.458511286491715353e+00
1.060109969515009354e+01,2.438249712438691290e+02,5.925483261144449898e+00
1.887135871574888313e+01,-3.744653058547575242e+00,-1.908032140337714111e+01
1.794806068488217221e+01,-3.475873600320504409e+00,-2.043648264089972955e+01
2.012801309443843323e+01,-5.116927654065131392e+00,-1.634664449040197098e+01
1.963146566706689100e+01,-4.937757302825381167e+00,-1.788429449622388745e+01
2.103010150244960386e+01,-6.645220004401720004e+00,-8.606831710511350764e+00
2.103951414055864078e+01,-7.648897109817401230e+00,-1.037648254384836122e+01
2.083577714853642249e+01,-6.947781488823787654e+00,-1.236424316405557988e+01
2.051775118310490953e+01,-6.336454253051953422e+00,-1.440117918099634764e+01
2.078604451437179179e+01,-5.730645068450620272e+00,-6.580299448294589126e+00
2.062553746112604713e+01,-6.299826056071431424e+00,-4.416138143244733527e+00
2.039168192228749987e+01,-6.852732395423037914e+00,-2.319081051295484031e+00
1.014493851584132500e+01,-9.312492962419263165e-01,1.610587652854550100e+01
8.717397432302160354e+00,-1.622571703941188659e+00,1.759662569790296516e+01
6.702894743739921779e+00,-8.394778362387178561e-01,1.797445185998661543e+01
1.965282443481377328e+01,-6.926964418396366341e+00,1.477667108077341140e+00
2.026712219265649395e+01,-7.900759047361365361e+00,-4.778722551950167485e-01
1.903707025620621351e+01,-6.362628252569640708e+00,3.590240721021839221e+00
1.827729453832397155e+01,-6.378957757058827838e+00,6.520653247629365268e+00
1.912633004134259096e+01,-7.819875095292131206e+00,5.030644267464618125e+00
1.739539704873410386e+01,-6.185642764573267449e+00,8.838810618821611342e+00
1.532280219574299807e+01,-6.067921298371503624e+00,1.314205084036986015e+01
1.678171788284743116e+01,-7.254479638287570253e+00,1.128284496860451824e+01
1.412957825022350988e+01,-6.746169429675564544e+00,1.547459059138399162e+01
1.234286068380290402e+01,-5.037927647065412629e+00,1.653847728413499851e+01
1.050680290396162064e+01,-3.344882012437482288e+00,1.724742904109667307e+01
-6.050889571302013437e+00,-3.811856560018963336e+00,1.180416205122006623e+01
-3.412888392149370453e+00,-7.041122138804674080e+00,1.258215103206655172e+01
-5.400632641384635946e+00,-6.056761334538077080e+00,1.206653905921237424e+01
-4.590783891897523006e+00,-7.938469166182097858e+00,1.230401731715529223e+01
5.258631140193021025e+00,-2.616720861101208051e+00,1.859256788332080390e+01
3.650040666807022660e+00,-2.584932157694352028e+00,1.742209510754060631e+01
3.060234739426000772e+00,-4.366093289505187158e+00,1.687251488262941734e+01
1.711865245461826390e+00,-3.803067738408340226e+00,1.553324020649345627e+01
4.617491089522172132e-01,-7.045767490890021634e+00,1.447557298361796541e+01
1.733978211866432417e+00,-5.946721228191092834e+00,1.551583639748077204e+01
-9.125512125710706357e-01,-8.149341454565215415e+00,1.365219731378707735e+01
-2.292584537430576219e+00,-8.944975799296969399e+00,1.305434791926566263e+01
-1.579372865566556072e+01,-6.170730439861522143e+00,4.850126464090543266e+00
-1.534800384775013526e+01,-6.019396100839237818e+00,6.409461245838818044e+00
-1.442497834791957345e+01,-5.193730766306789093e+00,8.130501471943311742e+00
-1.366336261867409974e+01,-5.278080228503728932e+00,9.856468798168341650e+00
-9.675513093678876686e+00,-4.564516263307416111e+00,1.179347881730792835e+01
-8.177663339855634206e+00,-5.058291441921550557e+00,1.200675722266087320e+01
-1.127104357955168012e+01,-4.775315672438210868e+00,1.141798179062598706e+01
-6.801075578972369584e+00,-5.677352269680901564e+00,1.200641502146039130e+01
-1.260711123408073320e+01,-5.920760228497133681e+00,1.120539977330606263e+01
-1.686691241877531766e+01,-7.999305899996216773e+00,1.896255040631546152e+00
-1.697281143293901096e+01,-8.607466455881382927e+00,-3.499064018538877718e-01
-1.679337238933245047e+01,-8.071457264422210898e+00,3.927032247385995767e+00
-1.703934214726435670e+01,-9.596351755472825928e+00,-2.435304267432500502e+00
-1.695998602066367056e+01,-1.071777301138367733e+01,-4.549860972756610167e+00
-1.632620619560464093e+01,-1.100155118140969179e+01,-7.730630288101157710e+00
-1.695845571820700570e+01,-1.229234021217602191e+01,-6.151095197993068808e+00
-1.585991818729129932e+01,-1.128334766510654674e+01,-9.592810913849605825e+00
-1.524352953321233173e+01,-1.141730546222752452e+01,-1.162054630348463213e+01
-1.299394385052737988e+01,-7.773104132588305681e+00,-1.578069175183438588e+01
-1.369361394426137224e+01,-9.797636919283240431e+00,-1.471902783208619425e+01
-1.455303616767644215e+01,-1.172407238446507272e+01,-1.351097775025604086e+01
-1.232340184421339302e+01,-7.031844238320741347e+00,-1.751690686795287633e+01
-1.170196688461548007e+01,-4.386715856481067100e+00,-1.800274273530979841e+01
-1.067565020988205760e+01,-3.855169451394985458e+00,-1.976381945224296288e+01
-9.442875538104878785e+00,-3.718180809704149326e+00,-2.119286768739995708e+01
-8.074068533493267807e+00,-3.692721904479082440e+00,-2.251418514136762639e+01
-7.220492352878917330e+00,-5.072852125217329089e+00,-2.378255841005755045e+01
-5.485950983082545918e+00,-5.588482185577259287e+00,-2.519283305122110050e+01
-1.786376432604299680e-01,-3.464207423162431354e+00,-2.539700914274271071e+01
1.811908023280587088e+00,-2.451864479476082437e+00,-2.502671519813292278e+01
4.254035205878437864e+00,-2.338659235059518338e+00,-2.495375469109599464e+01
6.614135620432257667e+00,-2.631210447503947947e+00,-2.490579487633333855e+01
9.093773683169352751e+00,-2.978679824749288940e+00,-2.466642186642968682e+01
-1.959812906359609030e+00,-4.827461127711131894e+00,-2.589195095115593048e+01
-3.623438055463182650e+00,-6.325280065663212881e+00,-2.629703929514428395e+01
1.172508791890449942e+01,-3.469555139740883476e+00,-2.426895427746854494e+01
1.355091380199401385e+01,-2.680564295645389450e+00,-2.322981246060895089e+01
1.563179578379849488e+01,-3.436983796262386370e+00,-2.255896875574702776e+01
1.724527326991857024e+01,-4.587691799499491907e+00,-2.173616582323854729e+01
1.834594551760645587e+01,2.426604336859219302e+02,1.600351093619330811e+00
1.661658053993796003e+01,2.432168105952795827e+02,2.626108908257629437e+00
2.001438543630659339e+01,2.432759336270019332e+02,4.366175105386886912e-01
1.295590716966077771e+01,2.444397456032771743e+02,4.614501972907666172e+00
1.525548645554608029e+01,2.449410725454703197e+02,3.493954888674577930e+00
2.159961368555995520e+01,2.439701615738651981e+02,-9.321433273743391368e-01
2.305821518328035680e+01,2.445413198120547804e+02,-2.699029058748022791e+00
2.408037251602944195e+01,2.453490663173795951e+02,-4.660326778482888344e+00
2.441230987503947958e+01,2.461418287894766479e+02,-6.749202367966965710e+00
1.781663504023596190e+01,2.504996985851962279e+02,-1.339905916029515609e+01
1.943313626795826110e+01,2.500074688070203592e+02,-1.255155304888692491e+01
2.098376549513232447e+01,2.495582175656328161e+02,-1.154653878713685522e+01
1.420051447361202257e+01,2.522505294824146915e+02,-1.492500208496378633e+01
1.603818977530100653e+01,2.514234794808768356e+02,-1.418770148644948037e+01
4.429084680349969716e+00,2.524361494492314364e+02,-1.723411181275820780e+01
2.214901012350399157e+00,2.526847129974475763e+02,-1.719106284529030049e+01
-1.289547166203579565e-01,2.533453843214506946e+02,-1.679250881993050371e+01
1.225854899939825593e+01,2.529971307017207778e+02,-1.562136043048707279e+01
1.032191760123759394e+01,2.536803066824163295e+02,-1.620844523745400778e+01
8.389135288737438856e+00,2.543270150538356518e+02,-1.670390046479847257e+01
5.347416260145557487e+00,2.542956316065306908e+02,-1.716812445498475626e+01
6.739277960452129790e+00,2.555322396407378562e+02,-1.699851486406957690e+01
-2.084394259011542516e+00,2.531910191209535697e+02,-1.605698490864346084e+01
-4.065916721376863663e+00,2.538995601007108576e+02,-1.491786783597214949e+01
2.380940879324135651e+01,2.466873562736034557e+02,-8.665202145393671174e+00
2.352788050143498566e+01,2.488099279717949344e+02,-9.107276209244016485e+00
2.235852463069980089e+01,2.491764563911194443e+02,-1.041931438061032722e+01
4.929389621698723190e-01,2.453676905254591816e+02,8.387930464542879605e+00
2.764973193864392442e+00,2.453938862486247103e+02,8.709346634697094913e+00
5.079853614141311091e+00,2.454472007448169677e+02,8.690633686416765258e+00
-5.475984640531521563e-01,2.473091034085095430e+02,8.258999337345025893e+00
-2.729102595200404657e+00,2.476276824778134937e+02,7.254033084772326667e+00
-3.367979799292447396e+00,2.499221985768588468e+02,7.005594202450521557e+00
-4.943062157424028769e+00,2.510619612921094870e+02,5.931526018643922704e+00
-9.370237634815229200e+00,2.545907824050636350e+02,-8.279060156929435976e+00
-6.835047793855347109e+00,2.519506388390086045e+02,4.237368542821745798e+00
-8.091834044498598999e+00,2.536048520142827840e+02,2.725412808813446830e+00
-9.623308855006243334e+00,2.548390176511713889e+02,-9.535337783173190029e-01
-9.005136830580818597e+00,2.554094180844771245e+02,1.058607336682368061e+00
-9.970629643389706587e+00,2.554090099287664373e+02,-4.999316680904676069e+00
-9.727457421825290496e+00,2.561401218678145142e+02,-6.960014744963686439e+00
-9.941401233517360936e+00,2.563321831880169839e+02,-2.715876053274927759e+00
-8.480448363893543728e+00,2.552580340268192742e+02,-1.019919635701992000e+01
-7.089127638443784463e+00,2.553617787529435930e+02,-1.213528276056640820e+01
-5.513032765807991176e+00,2.554107267562700656e+02,-1.378243401970341964e+01
7.269043230320567872e+00,2.457910549415129537e+02,8.151588357004271757e+00
9.432244174714675466e+00,2.459325623041903270e+02,6.893582028532639683e+00
1.155928789842210236e+01,2.462136646366651860e+02,5.571363236305861832e+00
1.845423017926098908e+01,-5.510105516364691702e+00,-2.045191642816920918e+01
1.913139644423529973e+01,-6.418441548704039157e+00,-1.922031007813437142e+01
1.971853907685690999e+01,-7.195214504354626506e+00,-1.762717229613998882e+01
2.017581045050584265e+01,-7.457820112591727835e+00,-1.591643430617006771e+01
2.114458780613675515e+01,-8.903255165260935300e+00,-8.277092075789393988e+00
2.105773945754609144e+01,-7.916833175576710957e+00,-6.368253985290714070e+00
2.098280508516627663e+01,-9.980252685307076987e+00,-1.004452068959005828e+01
2.079903231075550707e+01,-9.212186562248383837e+00,-1.202283149033175036e+01
2.052748810981192307e+01,-8.448253222701053389e+00,-1.389013598392590154e+01
2.096046770762963618e+01,-8.679972098259565172e+00,-4.300144622609387568e+00
2.081642549083948524e+01,-9.492532855592937580e+00,-2.355772790918020831e+00
8.948915974055573486e+00,-4.220590288255774425e+00,1.880224583550514694e+01
7.225083629963886978e+00,-2.820821290395518766e+00,1.881078451329570100e+01
1.977924395802392254e+01,-8.782185772093171749e+00,3.098626506718300533e+00
2.029479340790356900e+01,-9.642890607542515369e+00,1.226041165181488424e+00
2.067154886910467582e+01,-1.065503458204403664e+01,-5.406893887184125447e-01
1.845231131540490210e+01,-8.092089000713460933e+00,7.753595154084552021e+00
1.926992833978120245e+01,-9.424148077741492102e+00,6.200951064795267698e+00
1.985392389546611014e+01,-1.046989426000329360e+01,4.476594300242435764e+00
1.797354459936748583e+01,-8.775896981939396824e+00,9.690465793491085833e+00
1.579548363755821683e+01,-8.243980793579250843e+00,1.386241670102702805e+01
1.719708225475781660e+01,-9.581259354371185921e+00,1.197794020409887672e+01
1.455655914221757641e+01,-9.052787975458043590e+00,1.596824440303452164e+01
1.276763766930708144e+01,-7.462948706446136171e+00,1.739845481116962134e+01
1.085198743273755539e+01,-5.813912180477615266e+00,1.831626917735123428e+01
-3.637279755856596353e+00,-9.689896056883126718e+00,1.257342037553631364e+01
-6.068307127517126531e+00,-8.106666805890625938e+00,1.212020219241860453e+01
-5.156456130306372287e+00,-1.019626761100840540e+01,1.224317938875997136e+01
6.619253659598999917e+00,-4.594815255047615565e+00,1.955661445700630097e+01
4.931801001327922762e+00,-4.610106604061916080e+00,1.876325711538101260e+01
4.147570281211965693e+00,-5.933741926242404929e+00,1.802442567173354959e+01
3.052548751632127022e+00,-7.005715237004430662e+00,1.676610810415887087e+01
1.868901249802458864e+00,-8.368571887126432074e+00,1.544604205764923144e+01
4.785139302738770084e-01,-9.521280143418163533e+00,1.439470613903420038e+01
-1.017977823585079378e+00,-1.058898570603197520e+01,1.358392589382624216e+01
-2.519405450545762370e+00,-1.131526183277031272e+01,1.295033225287982859e+01
-1.644531163893005044e+01,-8.036344354397392920e+00,5.623945630009242080e+00
-1.530553036275536272e+01,-6.906302648468964023e+00,7.745605587067794673e+00
-1.614950750980683836e+01,-8.418849169009172684e+00,7.052328804983870825e+00
-1.470676250810059926e+01,-6.884777374570221653e+00,9.322147967526534629e+00
-1.390203517174847292e+01,-7.372934197441662008e+00,1.078467138580991858e+01
-8.802799006943988758e+00,-7.034799886652530532e+00,1.226737935732062823e+01
-1.020311005372400359e+01,-6.245347373990227879e+00,1.210084690997368284e+01
-7.473410628848020210e+00,-7.681937746531885658e+00,1.218784254195011130e+01
-1.137199615420169607e+01,-7.227602104175019804e+00,1.203382672904633210e+01
-1.270114435220894933e+01,-8.462432304373741943e+00,1.182224978308540031e+01
-1.753710025315996646e+01,-9.903828832600318322e+00,3.039876843278594976e+00
-1.745642576468939211e+01,-9.844363842643289786e+00,1.199169546492338867e+00
-1.755477617764647036e+01,-1.083120231276010514e+01,-6.296776086376052461e-01
-1.741695122987843192e+01,-9.957617706426615811e+00,4.868358521734439393e+00
-1.753649302992863923e+01,-1.198413895063712076e+01,-2.666899948548132393e+00
-1.748772704130208311e+01,-1.350581088139163910e+01,-4.426580995703654153e+00
-1.668557918258897388e+01,-1.361659312401292432e+01,-8.118323218810107988e+00
-1.722854153215253703e+01,-1.499283446645482876e+01,-6.238410081390760809e+00
-1.607600294381827410e+01,-1.335556404305689782e+01,-1.016780662845754080e+01
-1.545794543846533031e+01,-1.363626360512114388e+01,-1.200630779886973087e+01
-1.294622593439964930e+01,-9.835654525437757201e+00,-1.667996302791924279e+01
-1.375848233421428546e+01,-1.191610632988087559e+01,-1.547617981677240806e+01
-1.473081532117648962e+01,-1.371014591635786140e+01,-1.385324217171243433e+01
-1.215375421386705668e+01,-9.230421050372138225e+00,-1.852900274091438959e+01
-1.150165726520084064e+01,-6.453778938910540219e+00,-1.937275109321760169e+01
-1.035709045859838540e+01,-5.877188137570604098e+00,-2.097122387220745310e+01
-8.944987397057701628e+00,-5.624216474496781970e+00,-2.247067293204665717e+01
-8.366862598801287021e+00,-7.327460093967774313e+00,-2.355246927545663738e+01
-6.840237340743058780e+00,-7.176112887443343524e+00,-2.484025395847281814e+01
-5.143630186956009709e+00,-7.703997895371038851e+00,-2.624986958547971483e+01
1.717784838066748421e+00,-4.492638174770817727e+00,-2.606312133462412106e+01
-4.202764591978080944e-02,-5.574773969782238936e+00,-2.649754959287820810e+01
3.513391815465801926e+00,-3.899500913464844842e+00,-2.579339285650776503e+01
5.745628899745831575e+00,-4.237911604666141585e+00,-2.585671948508390017e+01
8.125776746986531407e+00,-4.606400181268339722e+00,-2.571716260695439615e+01
1.069339940565924252e+01,-5.082844658179199726e+00,-2.537391686877765906e+01
-1.745910754577295165e+00,-6.980223434529538196e+00,-2.705631478390286304e+01
-3.365931598910286482e+00,-8.467773592705558627e+00,-2.735690638525388607e+01
1.318088066821213999e+01,-5.938907500310104837e+00,-2.497548871482132427e+01
1.439935760726424263e+01,-4.724351260744176884e+00,-2.385658389434644278e+01
1.640536035256090486e+01,-5.763439319714313669e+00,-2.301482557335258861e+01
1.777421504912957317e+01,-6.855133805697038341e+00,-2.185299855044061701e+01
1.740879140786348245e+01,2.450521336245165855e+02,2.334050583349979391e+00
1.905212852527915501e+01,2.451897390434247939e+02,1.317483707426458039e+00
2.063413808488590107e+01,2.458009622041245166e+02,1.412764106342336845e-01
1.386197047253087256e+01,2.466602559922487785e+02,4.286478553135266267e+00
1.607031398014578016e+01,2.469788300812384421e+02,3.182040459169982682e+00
2.220802782912336326e+01,2.463424134936110761e+02,-1.402864770203574807e+00
2.354310273488167482e+01,2.469953426950022219e+02,-3.215157662450279119e+00
2.435300340027249888e+01,2.477755591158869208e+02,-5.201334858681256890e+00
2.439221624012974488e+01,2.484263741374998062e+02,-7.294780482363623975e+00
1.904556793278516125e+01,2.522923127541617703e+02,-1.278483425856119915e+01
1.743688005841011091e+01,2.529553276500267032e+02,-1.358490944860894523e+01
2.056486564185108179e+01,2.517262202950588801e+02,-1.186676230794896014e+01
2.192804128930377772e+01,2.512853771912416789e+02,-1.082095003243780695e+01
1.572451855972618162e+01,2.538301643570966917e+02,-1.433849325665583230e+01
1.380651210844813370e+01,2.545897447781177334e+02,-1.508537232734230749e+01
3.411275234342005191e+00,2.546845568357717298e+02,-1.724176828167723130e+01
1.339367585462678534e+00,2.548313004994404878e+02,-1.706953775344728541e+01
-7.178586378374092192e-01,2.559074636128218572e+02,-1.661305962723529461e+01
-2.321048586886409026e+00,2.552113645743765460e+02,-1.597681127698097825e+01
1.187925734878325201e+01,2.553413878449086951e+02,-1.575165207990193394e+01
9.931053156784251712e+00,2.560133307524504289e+02,-1.633471232466089162e+01
8.148661346486139934e+00,2.570098453178798081e+02,-1.675667055069894218e+01
4.819502132297396102e+00,2.566415710664668381e+02,-1.720081802809662719e+01
6.223276856662041112e+00,2.580535789383628753e+02,-1.708151943860196909e+01
