2.436972710379409790e+01,2.071410296147402903e+02,-5.358472854286009834e+00
2.253410815441141679e+01,2.071687879431123065e+02,-7.138306907758632747e+00
1.761014818621457678e+01,2.038817369756567928e+02,3.648017569077557809e+00
1.477670341442397195e+01,2.021390912472107289e+02,4.611478057122226915e+00
7.591409071960500299e+00,2.101572836443673680e+02,-1.483274745290612451e+01
5.729369896897761549e+00,2.110228109079288288e+02,-1.525899845741065164e+01
9.458747288862429770e+00,2.111686108111254896e+02,-1.431628142064249154e+01
3.733171931862004911e+00,2.120854670424172639e+02,-1.554968904883246772e+01
3.214740874743132970e+00,2.143780660329799161e+02,-1.567638824094762384e+01
1.102734018531737803e+00,2.147360362261416356e+02,-1.574342371935838791e+01
-8.462091305513759210e-01,2.157909112116207098e+02,-1.560554204375594622e+01
1.599623758585155286e+01,2.091588970560774499e+02,-1.134492149674211348e+01
1.284726629003803922e+01,2.094541352133161070e+02,-1.291256637700373844e+01
1.478294565608163680e+01,2.106130506352141936e+02,-1.203005217816106054e+01
1.139255498710762460e+01,2.108094170075394800e+02,-1.359190064058486058e+01
-3.804492078477645478e+00,2.081876522134948004e+02,4.613760267476573418e+00
-8.827295621205530907e-01,2.061949243062974517e+02,7.116323202891006616e+00
-2.096201431490381850e+00,2.083042212051811646e+02,6.130774866452105343e+00
-6.046043963256049203e+00,2.101142636377391000e+02,1.486959463404507353e+00
-4.760085366629811077e+00,2.102623882778916027e+02,3.497103976944452075e+00
8.473155356646873138e-01,2.065833473686450645e+02,8.103157741111164825e+00
-6.579390389729791622e+00,2.121729217554155298e+02,3.531065954865120204e-01
-7.936253762164502845e+00,2.145801863297711236e+02,-6.182186040061391274e+00
-7.873469637797573917e+00,2.153424135220562619e+02,-8.079949505871873328e+00
-7.504494996586813294e+00,2.148568445103931595e+02,-2.785837913538173893e+00
-7.849688408228584713e+00,2.159370962480381024e+02,-4.709722481721163589e+00
-6.972728453284693373e+00,2.141559117961484162e+02,-6.889375570672502391e-01
-7.220044616286014794e+00,2.155195145316089622e+02,-9.921769932642988010e+00
-6.036930466311152266e+00,2.156268043767400400e+02,-1.178499271039360785e+01
-4.684518563011572212e+00,2.159590608906503917e+02,-1.342195689835021177e+01
-2.730166382288585769e+00,2.165821311210851547e+02,-1.497835399889799923e+01
1.093727660223777498e+01,2.043490233745354203e+02,5.643803380369245559e+00
1.293680567880890742e+01,2.033427170795378629e+02,5.102111074772386345e+00
1.053370037622507027e+01,2.064117419445471739e+02,5.770099063505733206e+00
8.378594891099515607e+00,2.065183645469295755e+02,6.469065139731820402e+00
4.310980147356339387e+00,2.059552688823069957e+02,7.881518287682199642e+00
6.268448671234777336e+00,2.070580717562797588e+02,7.161966307039936197e+00
2.704216767856727266e+00,2.073956968342167499e+02,8.252418991847033425e+00
1.003412244883883275e+01,2.819183773474488675e+01,-1.366678777451735627e+01
1.210696297445004888e+01,2.786288549396045511e+01,-1.228094010766028354e+01
1.389050895858343182e+01,2.706775658659243078e+01,-1.032948489548823545e+01
1.093678207222948728e+01,3.626367610650203943e+01,8.125591598889347011e+00
1.338108398079643990e+01,3.537600957053679451e+01,4.719411746036053401e+00
1.220417639300672619e+01,3.485103314125608165e+01,6.698210086396912288e+00
1.416631441528532953e+01,3.376741531369935956e+01,3.103002317160670209e+00
1.483716358149908032e+01,3.219701256870547468e+01,1.420190006953590434e+00
1.535301834318998537e+01,3.053116935405502375e+01,-3.564362244972070215e-01
1.559090530907061378e+01,2.939713167539007443e+01,-4.141065528715917488e+00
1.566822061723354054e+01,2.872007134361319203e+01,-2.108170948654932708e+00
1.580209928833052757e+01,2.700846427111840953e+01,-4.203213127351492773e+00
1.564046238073447626e+01,2.615295158482971871e+01,-6.313053535174814712e+00
1.504441744639802003e+01,2.549979548217229564e+01,-8.647869033231351921e+00
-9.993889314742482100e+00,2.555643650731739669e+01,3.851270303361159719e+00
-8.712386990203203396e+00,2.495995975074491469e+01,5.570231839838111654e+00
5.422529347944619715e+00,3.249644841892241232e+01,1.199823837036438867e+01
7.658084026320757687e+00,3.346405029135257081e+01,1.093241480796207377e+01
3.122558851985159478e+00,3.122440538958627343e+01,1.237931085240234985e+01
9.131719158879418430e+00,3.500477314624955483e+01,9.834440080370931980e+00
8.337047800597989777e-01,2.960071833131451058e+01,1.202275929035172197e+01
-5.893068561835637098e-01,2.751964525702274500e+01,1.138136141469419549e+01
-2.690283352328605382e+00,2.723356426912746642e+01,1.016685527640577469e+01
-5.180447193413632689e+00,2.630551481007773518e+01,8.539337520646704149e+00
-6.900937120637562927e+00,2.468803768396006149e+01,7.341314162319358516e+00
-1.176184828088227974e+01,2.454545141348194193e+01,5.784281704979052918e-01
-1.094526614771237405e+01,2.406298039468792282e+01,2.432023777015571042e+00
-1.298392316158617987e+01,2.545748830813608166e+01,-4.564230844222040950e+00
-1.284913077863350495e+01,2.419983896930976996e+01,-2.771330951695059053e+00
-1.247449043009687486e+01,2.293367848813743137e+01,-9.654067728205424359e-01
-1.289540315418012995e+01,2.427961993799713625e+01,-6.226054511728565721e+00
-1.114584110479141543e+01,2.593904643019973832e+01,-9.979373789294294639e+00
-9.770153088355193916e+00,2.649724528849081651e+01,-1.143539189957270175e+01
-8.135497028966753419e+00,2.701277580467923656e+01,-1.264617922376129755e+01
-1.268061877949945782e+01,2.290706782522770624e+01,-7.837522209423164021e+00
-1.178904978385999058e+01,2.377163883731921601e+01,-9.550940881833961171e+00
-3.065588425130268746e+00,2.620936314300115200e+01,-1.465559605504006413e+01
-5.118575586465720306e+00,2.553928982619524390e+01,-1.425942607035004173e+01
-7.137569370150654180e+00,2.522160345540535076e+01,-1.353587766586436203e+01
-8.032524544459960225e-01,2.665924056126123887e+01,-1.496674993895933881e+01
1.356474807217260548e+00,2.688409706752228345e+01,-1.515276818455676633e+01
2.991904033864830836e+00,2.599768487104114456e+01,-1.541155939948213316e+01
4.955670696179314660e+00,2.707149003733903925e+01,-1.523375393730687044e+01
6.959862642255377096e+00,2.623843468010827351e+01,-1.515594600740831588e+01
9.174311693524408895e+00,2.628715655347874502e+01,-1.446164600930079835e+01
2.165701047667625190e+01,2.089614092870153286e+02,-7.923146986299158812e+00
1.974894253959816481e+01,2.091277992731649817e+02,-9.180717776585883172e+00
1.794050924317564721e+01,2.096179450486382621e+02,-1.029036416023261680e+01
1.932661679241682862e+01,2.061088238611295651e+02,2.973119365234628830e+00
2.306203097851022221e+01,2.083754540831770896e+02,9.199060060096577729e-01
2.423658619656134050e+01,2.097477834039723064e+02,-4.259747540838958457e-01
2.507968041901418843e+01,2.093323545281836857e+02,-2.313910562609578392e+00
2.502537084250296573e+01,2.089758867338232164e+02,-4.302591881284158148e+00
2.095837975273535747e+01,2.082913667608379171e+02,2.347785366151892816e+00
2.362440588479186232e+01,2.089858911524708276e+02,-6.340249261765926292e+00
1.520761177278085796e+01,2.045209066803876681e+02,4.455423762756330675e+00
1.693276051187573472e+01,2.064349475001037604e+02,3.918201943623605743e+00
7.578163734154825804e+00,2.124424054755374698e+02,-1.490860361512508270e+01
5.509535337617495365e+00,2.135119848304156562e+02,-1.537821732009129505e+01
9.433712043573034833e+00,2.138823535273069467e+02,-1.441788563433676629e+01
1.125796882452513259e+01,2.130333233881184185e+02,-1.372103682669919067e+01
5.095547891404693885e+00,2.157947027104046356e+02,-1.551980061666531441e+01
2.924517437069180659e+00,2.169419197076460648e+02,-1.578432554703598356e+01
7.260363728233016900e-01,2.169731187944311444e+02,-1.582907229640425051e+01
-1.184036236259685460e+00,2.183258057609533012e+02,-1.567125507506738025e+01
1.690430340465476178e+01,2.116585478323599148e+02,-1.096014125950402196e+01
1.319202723016543644e+01,2.119308089752289845e+02,-1.284648490461791503e+01
1.515789429985812120e+01,2.130044254115828721e+02,-1.193997233077364584e+01
-3.148776716699172695e+00,2.103487805320830546e+02,5.246962956271558731e+00
-4.315223037438329357e-01,2.084608577921794961e+02,7.383660974407460387e+00
-1.495907256343297576e+00,2.106085552504735290e+02,6.587502340467669804e+00
-5.590820057998778125e+00,2.123696287615890128e+02,2.397310522053642146e+00
-4.106922187535184676e+00,2.123889008248881680e+02,4.297926976645314312e+00
1.254429121826663884e+00,2.089379906208388036e+02,8.182382700063037362e+00
-6.273814809633602607e+00,2.146433991819561697e+02,1.294716337935849282e+00
-8.076546257172894983e+00,2.171880141273394145e+02,-6.739197591325803316e+00
-7.827687113303067434e+00,2.181170088424154869e+02,-8.744995232537052132e+00
-7.609389460713653186e+00,2.173294068923682403e+02,-2.894312288465288319e+00
-7.045386007237807391e+00,2.163653206675655269e+02,-7.127857937248984754e-01
-7.985711794792754503e+00,2.185148136138119241e+02,-4.894835294321568497e+00
-6.910977248418801899e+00,2.176590065245597714e+02,-1.059824209055049593e+01
-5.669078204242183006e+00,2.183179800836175275e+02,-1.237009586876438227e+01
-4.149198954038212150e+00,2.178444799689120828e+02,-1.400459238211748492e+01
-2.905738848560262433e+00,2.190247532854266410e+02,-1.490736055443881369e+01
1.278361243784995338e+01,2.057052043806860979e+02,5.135287218908471729e+00
9.594701163759513207e+00,2.085949169756964920e+02,6.073576904478891869e+00
1.210237846210764623e+01,2.080184898468647248e+02,5.368364027893557378e+00
7.218040227355912997e+00,2.090908935044313353e+02,6.870916130296977897e+00
4.690094114698135641e+00,2.083879683181390590e+02,7.735767666765207551e+00
2.985570393771985742e+00,2.097873260346610493e+02,8.192287816537609402e+00
1.120638443242146209e+01,2.603584850072395795e+01,-1.335901326457692484e+01
1.292422740154331429e+01,2.583507160995987917e+01,-1.191009102513498519e+01
1.414993391283616120e+01,2.463876957620084340e+01,-1.062796815307819820e+01
1.060249002070054836e+01,3.403375317481116724e+01,8.625610370431783025e+00
1.319753672361560248e+01,3.316743998895907453e+01,5.231647375140592970e+00
1.176518472359114575e+01,3.259243911721765130e+01,7.419869126505284740e+00
1.407356158070136409e+01,3.153900294310273367e+01,3.621151888742685010e+00
1.486349261873922423e+01,2.993698501888015784e+01,1.871780055259829822e+00
1.546843671310209167e+01,2.818248077608456015e+01,6.762829889424093466e-02
1.587462152333641541e+01,2.634518123776797083e+01,-2.104352481059414970e+00
1.603207606132665575e+01,2.453307779582719661e+01,-4.243753129701918425e+00
1.576639780323109186e+01,2.393095881400601854e+01,-6.860049678214661384e+00
1.520030314017014916e+01,2.316262904689293478e+01,-9.078871768536046716e+00
-9.990666840854554920e+00,2.301048795919697199e+01,4.294934721274931810e+00
-8.428409399028190307e+00,2.290710654325927820e+01,6.208024343321956628e+00
7.480422536871857986e+00,3.122747943407070892e+01,1.123958147020440279e+01
5.245231957093221098e+00,3.018854614995446894e+01,1.221921108931762667e+01
9.623347338932140005e+00,3.216938501089201452e+01,9.684763254901200824e+00
3.007166243650591042e+00,2.893947207808000854e+01,1.246532419078737597e+01
1.308212115158603694e+00,2.723217144109724686e+01,1.215133597443887048e+01
1.308797012215112687e-02,2.518381323067567124e+01,1.159170681563169580e+01
-1.719478474637155863e+00,2.523133101319832150e+01,1.070581102032760157e+01
-3.593934039992141116e+00,2.529873674858302479e+01,9.632990210161251454e+00
-5.069693909714939828e+00,2.383572769182751472e+01,8.760521753821452151e+00
-6.636837763688033576e+00,2.256091724867188475e+01,7.836597422061567286e+00
-1.192433024366685856e+01,2.226915433087095764e+01,8.026334212695447334e-01
-1.125575539487415355e+01,2.180288306036940682e+01,2.512107777870372871e+00
-1.319233102689124948e+01,2.295502577784294829e+01,-4.448027888700119448e+00
-1.304995699542276455e+01,2.189020726205081857e+01,-2.566627669832416636e+00
-1.263198264991320485e+01,2.070854810747075092e+01,-5.113760565171530104e-01
-1.323003294562086296e+01,2.174853308469041124e+01,-6.072036833429694802e+00
-1.049954027026544878e+01,2.427085691885355345e+01,-1.121974795818708515e+01
-8.923112156393898431e+00,2.473988882687784496e+01,-1.252125106616856698e+01
-1.304430685706902437e+01,2.039802991044751579e+01,-7.645850462898104105e+00
-1.229058762669021831e+01,2.139516768175554517e+01,-9.426856389729142194e+00
-1.115116607189552056e+01,2.206970677703463934e+01,-1.102839940762957838e+01
-3.769752809551206951e+00,2.366759516331546109e+01,-1.495685098977147831e+01
-1.709239536269645754e+00,2.459676378391842277e+01,-1.519250546523543122e+01
-5.965528135102001528e+00,2.330627366406196188e+01,-1.433914600276743379e+01
-7.960914095600365670e+00,2.293629920221828655e+01,-1.348552233416151758e+01
6.264117290871062949e-01,2.461218827485586047e+01,-1.549182334607592004e+01
2.741151318992464780e+00,2.375175233626062266e+01,-1.579463147453117600e+01
4.736845167872040463e+00,2.476171129580362162e+01,-1.563852880356096975e+01
6.600416279396061014e+00,2.405405785348818526e+01,-1.561216076436353717e+01
8.612225779463852149e+00,2.425740828083200995e+01,-1.509765520122677174e+01
1.064995896803917574e+01,2.406141679958681578e+01,-1.416949735157921353e+01
2.290795137747079124e+01,2.109956563740176989e+02,-7.115351917710118101e+00
2.107544035735911336e+01,2.111824189428728289e+02,-8.460347551101737196e+00
1.917266822007690763e+01,2.115012046699808081e+02,-9.658857154055215943e+00
1.865765514411133097e+01,2.085223086958967542e+02,3.296296543995488548e+00
2.252632169939096585e+01,2.103970734945173717e+02,1.386245345396520889e+00
2.377934934504745002e+01,2.119951041451446656e+02,2.331773986034484381e-01
2.487837543142288510e+01,2.115748113509143593e+02,-1.727787857940665361e+00
2.516879282300166665e+01,2.110871499417259542e+02,-3.408975675387431181e+00
2.447317808928403693e+01,2.107469993527253962e+02,-5.439631392731548942e+00
2.046464542131249686e+01,2.106131027015320001e+02,2.603272108749870029e+00
1.455659468791035493e+01,2.070602544695422864e+02,4.697091746105423127e+00
1.621275099500984140e+01,2.089757347649432404e+02,4.154565084345357207e+00
7.426694055480711931e+00,2.147868120052409893e+02,-1.502347447556459059e+01
9.319247847407787333e+00,2.164980504729076358e+02,-1.453266362673011436e+01
1.130983243311001196e+01,2.153947559041023396e+02,-1.377639563687554158e+01
1.322420909993151383e+01,2.142470015675737898e+02,-1.291532529125491990e+01
7.156385332756167728e+00,2.169520761863853409e+02,-1.515654191848823373e+01
5.001737128588549908e+00,2.181792009496128628e+02,-1.560800222469245924e+01
3.240192499747142740e+00,2.195588856365322670e+02,-1.584679919661451031e+01
1.118632303443038545e+00,2.190429929202785218e+02,-1.590547683147955382e+01
-3.279353212816462637e-01,2.208500135910238100e+02,-1.586660432285266609e+01
-1.899889114214410535e+00,2.206157613157654396e+02,-1.543240893473544872e+01
1.690888816909355441e+01,2.143256487401957600e+02,-1.107652521766297582e+01
1.858387840592550688e+01,2.135078904435034133e+02,-1.010527577401494881e+01
1.515020579709302773e+01,2.154828075941787233e+02,-1.204431127951609604e+01
-2.343018578209466796e+00,2.125848568547286845e+02,5.926450723746755855e+00
6.775382442457544840e-02,2.106552463244410944e+02,7.631403389832476236e+00
-3.644954818309802391e-01,2.128502517217280285e+02,7.270738934442264600e+00
-5.113910203846787184e+00,2.144969775404597669e+02,3.198662857517299951e+00
-3.516704348723187934e+00,2.145359535001016695e+02,4.884006405698766429e+00
1.521460308032697384e+00,2.114097122519246739e+02,8.212793473215693751e+00
-6.185439375936059747e+00,2.169188794645913561e+02,1.524011932177477213e+00
-8.204028505796976845e+00,2.197069334854162719e+02,-6.934765540523327942e+00
-7.962498369275978760e+00,2.208891775540846822e+02,-8.776371441314754662e+00
-7.033569575514885486e+00,2.199120819904466941e+02,-1.054966649682012836e+01
-7.712361327333281835e+00,2.198600222056588223e+02,-2.935382152457640004e+00
-7.198544151860177820e+00,2.186095544868450418e+02,-1.020221396050845719e+00
-8.132970958318608723e+00,2.209737856270720613e+02,-5.018558542685653379e+00
-5.952284462111661512e+00,2.209648400926605802e+02,-1.204643641907566831e+01
-4.614285224878996061e+00,2.201992923277954901e+02,-1.363682231742731510e+01
-3.455108765657752379e+00,2.217258036422665270e+02,-1.466652589029629539e+01
9.093749363229967742e+00,2.109000129724080352e+02,6.282987907364290692e+00
1.137793559369223928e+01,2.102515889383676893e+02,5.554181744639157259e+00
1.380659946771064206e+01,2.095351803083428024e+02,4.871248161635161722e+00
5.062046383103286473e+00,2.105554838397767980e+02,7.638801258537279537e+00
7.074128184318821511e+00,2.113740845635487915e+02,6.959458700645166473e+00
3.395254845805449229e+00,2.121013759520877784e+02,8.128015366520866536e+00
1.254858716774335647e+01,2.384172814598467838e+01,-1.272733781535208664e+01
1.406098796488780778e+01,2.255345835190247428e+01,-1.125991446340118252e+01
1.299204751303544114e+01,3.103961430105321639e+01,5.820005374925160346e+00
1.132690954107529890e+01,3.060366484105311002e+01,8.147663462899513931e+00
1.401103030625467660e+01,2.933703576632561294e+01,4.106324978791089819e+00
1.487876864376316810e+01,2.765716102053667669e+01,2.344767339131509587e+00
1.558096935538776684e+01,2.591969759582477195e+01,3.835687430895227124e-01
1.603137202585067200e+01,2.419058948871949610e+01,-1.551664921989166501e+00
1.629057826113453444e+01,2.245613302961157132e+01,-3.100059611191461784e+00
1.621169262704410841e+01,2.227000502107513924e+01,-5.436048328440687527e+00
1.595820942412073506e+01,2.155312164663119034e+01,-7.510913957258781082e+00
1.513748433512117053e+01,2.105267788736985324e+01,-9.881084575146031668e+00
-9.402561714404392035e+00,2.091364301510843404e+01,5.548841818930225323e+00
-1.078809840338162829e+01,2.043049082101243386e+01,3.767227541739070595e+00
-7.490871429894017552e+00,2.087047833399001462e+01,7.376502440344808953e+00
7.300973039577344892e+00,2.898664823607387220e+01,1.156879437271959432e+01
9.415177403137414913e+00,2.992887234157068121e+01,1.006462238634889594e+01
5.181212502308850887e+00,2.792852774440407870e+01,1.242781780990105212e+01
3.277444473518936974e+00,2.665638239738230908e+01,1.258481674087563462e+01
1.832329967683579142e+00,2.484315332482576366e+01,1.224132176348244094e+01
7.588447657878401031e-01,2.292445533341964037e+01,1.173957361156666579e+01
-1.068107373185128495e+00,2.305799548895343065e+01,1.089083551665975946e+01
-3.154986662341092707e+00,2.315011606402541133e+01,9.872011084438423012e+00
-4.941950747507491748e+00,2.136865653633429218e+01,8.992754133406464234e+00
-1.198524381674900852e+01,1.986772346122744182e+01,1.513064914979083575e+00
-1.343692517571003719e+01,2.059260945248360386e+01,-4.151519754641652682e+00
-1.326323311171854868e+01,1.969033845351092893e+01,-2.245794968069327879e+00
-1.288905776403671410e+01,1.866943696164042521e+01,-3.654080016949352583e-01
-1.356819174906507186e+01,1.934179176489759300e+01,-5.802490500213081326e+00
-9.661482681436812214e+00,2.245201431271298276e+01,-1.239819997293285958e+01
-1.343728497672624655e+01,1.799732072736522781e+01,-7.437404013875800857e+00
-1.271835548646482650e+01,1.902371482722515594e+01,-9.235500009115607867e+00
-1.172818366322598393e+01,1.977152828176291166e+01,-1.094072146995394057e+01
-1.038524115342460874e+01,2.019644896914073229e+01,-1.235925374963394852e+01
-1.133962345767965729e+00,2.265597390252522203e+01,-1.564559997996094332e+01
-2.826166419055127221e+00,2.152628762421949205e+01,-1.558567156850303803e+01
-4.892938672100004993e+00,2.143193648495556047e+01,-1.510089272389448922e+01
-6.914804471868460922e+00,2.116615748065095914e+01,-1.439076309986131896e+01
-8.769345939236860232e+00,2.058267200277903441e+01,-1.347693869498268526e+01
8.534362743680929952e-01,2.213019463466662984e+01,-1.596778533480951801e+01
2.909057452806525390e+00,2.170393964166354195e+01,-1.620573232092296934e+01
5.026547800602433114e+00,2.237194992764980483e+01,-1.607672910923239940e+01
7.395468306794821700e+00,2.214799704781482959e+01,-1.585745108270836567e+01
9.529929334973520128e+00,2.212857994908534209e+01,-1.519223549414596519e+01
1.146639270470927130e+01,2.183632599200012692e+01,-1.409082584550627004e+01
2.407493549915989206e+01,2.127514180851019034e+02,-6.156901018941997705e+00
2.249089607581009531e+01,2.132679435626808129e+02,-7.598919449434092144e+00
2.069765230451068660e+01,2.133562682411715912e+02,-8.819910748749759222e+00
1.807418962863406620e+01,2.108764696228640787e+02,3.564741849588695999e+00
2.216706510173090194e+01,2.127689893407572868e+02,1.675834883635506145e+00
2.463844631817904585e+01,2.135044463817245912e+02,-1.072997489803903193e+00
2.358884461822820811e+01,2.144939158670157155e+02,5.165806879844367927e-01
2.517831070572187713e+01,2.135885662040146258e+02,-2.915793448733470683e+00
2.505056435777795087e+01,2.124825355916357523e+02,-4.462315528777430984e+00
2.008142031632136337e+01,2.129745733354535560e+02,2.819818103114414498e+00
1.550973987267461496e+01,2.113508794884791939e+02,4.407589211192998846e+00
9.435408692837013334e+00,2.190822253169112344e+02,-1.456780325050758051e+01
1.138623184581330428e+01,2.177938757060836110e+02,-1.381574834804760599e+01
1.331922910587397624e+01,2.167273374592429320e+02,-1.295586429102262827e+01
7.261247532389182524e+00,2.190733129461426358e+02,-1.519061612514891735e+01
5.438840486583858436e+00,2.205747670336411659e+02,-1.559874596092737953e+01
3.791222729377929923e+00,2.220963648605608682e+02,-1.587513062594616464e+01
1.605325880484938850e+00,2.214639783073482704e+02,-1.599618107628481134e+01
2.458344617039820434e-02,2.231898706291755161e+02,-1.598393800069175796e+01
-1.994683763043351821e+00,2.230849462799988601e+02,-1.551630011372244056e+01
1.704925623657942069e+01,2.168681502555581915e+02,-1.111327753652550498e+01
1.867968331367054802e+01,2.160130605490649884e+02,-1.017065095472472791e+01
2.024340350922019383e+01,2.152321739550965845e+02,-9.206972116774764459e+00
1.529955480809281809e+01,2.179841091799900994e+02,-1.206140282761549720e+01
-1.646707549598069420e+00,2.146298085952573445e+02,6.380147374609665967e+00
1.648627341456441187e+00,2.136140233183002408e+02,8.107300909753536899e+00
2.131701797476992510e-01,2.151286519147841432e+02,7.487644595068957187e+00
-4.760082203859781202e+00,2.165838447799596338e+02,3.668286783585238631e+00
-2.973551841600805545e+00,2.165828659798992533e+02,5.337007770270744800e+00
-6.597863614124708675e+00,2.192834875977039530e+02,7.733357134766327690e-01
-5.494244579330757716e+00,2.187946102702376265e+02,2.758185100419300539e+00
-8.333296984633122406e+00,2.221750527336633638e+02,-6.912444788653881567e+00
-7.204217895359963819e+00,2.224324168762379372e+02,-1.027987697000003209e+01
-8.095478371921617011e+00,2.235816256753139442e+02,-8.519556742383024073e+00
-7.259674748415132939e+00,2.212242408923530093e+02,-7.954720758692612748e-01
-7.883389647432294645e+00,2.222992363788952730e+02,-3.003442592401158961e+00
-8.269598743707479827e+00,2.234097883588760283e+02,-4.955894898278628169e+00
-4.936585276839607239e+00,2.226416444704593403e+02,-1.332815530623956235e+01
-6.274081187731898268e+00,2.236809916564003800e+02,-1.169420085346322224e+01
-3.815530666989678465e+00,2.240583122914707985e+02,-1.444587867232436373e+01
8.111167402488320022e+00,2.133559612062109352e+02,6.614066791975909965e+00
1.065705757183890867e+01,2.125584324523451585e+02,5.808860383078148892e+00
1.302840702983492704e+01,2.119274726296325753e+02,5.120561608790827890e+00
5.593444024796946579e+00,2.129161995115778439e+02,7.572307377992271604e+00
3.626089988049889357e+00,2.142843020734798927e+02,8.224769503119173208e+00
1.295654830322435025e+01,2.160756141235071226e+01,-1.279215854698729693e+01
1.405384776135485936e+01,2.006760494251515325e+01,-1.186334887591436704e+01
1.278596940223669343e+01,2.892319543685939465e+01,6.375790130193157879e+00
1.115384387656337140e+01,2.847965960458408574e+01,8.558131964531026981e+00
1.393767437795126618e+01,2.711384841554410841e+01,4.589412991764359795e+00
1.488097736862706988e+01,2.541283045437515398e+01,2.810300593334447150e+00
1.561372476748141302e+01,2.374620158892775024e+01,9.988358100943024453e-01
1.612495932634286078e+01,2.197352524394104378e+01,-7.259213749569273233e-01
1.651574392286232751e+01,2.048618628023527322e+01,-4.357253515767490981e+00
1.649582307254053859e+01,2.007899888993097548e+01,-2.207677236346855310e+00
1.651988840525796221e+01,1.940134322459569205e+01,-6.190820244622639024e+00
1.599857049423975752e+01,1.960352635100745999e+01,-8.399787315698253209e+00
1.513892288748563075e+01,1.887773565382847352e+01,-1.058723138786306350e+01
-8.579036224491034091e+00,1.895453379086188761e+01,6.795131948001110089e+00
-1.016899685982554402e+01,1.869747460065061517e+01,5.084344647296179964e+00
-1.149499748053342785e+01,1.838382404401673398e+01,3.119544698552125794e+00
-6.346151864340950688e+00,1.933073798039399094e+01,8.398819537989675510e+00
7.167954906321181596e+00,2.675489339260725785e+01,1.185370988206181053e+01
9.192369113917029821e+00,2.771741527849031073e+01,1.045097746956482254e+01
5.239651371453128093e+00,2.559688354018651779e+01,1.262009625314530226e+01
3.513694881764263478e+00,2.446719279810933401e+01,1.269625287865102337e+01
2.705997574035368558e+00,2.248722488476852277e+01,1.246826096183223065e+01
1.389263521616200592e+00,2.090918035576195066e+01,1.185019752696937267e+01
-4.276110392692853424e-01,2.093728360003796141e+01,1.115384278305506882e+01
-2.620536100434931903e+00,2.116525111984810081e+01,1.015693480019135464e+01
-4.089595266725853051e+00,1.931300298825406259e+01,9.541386412617317347e+00
-1.250500723038944528e+01,1.749850907487337537e+01,1.246132596981144758e+00
-1.369942739592317693e+01,1.836346131315728414e+01,-3.939366041315383704e+00
-1.349989048419685034e+01,1.753239161413262792e+01,-2.086642923321835763e+00
-1.324570067430358122e+01,1.651894856205341000e+01,-3.549744524751039521e-01
-1.388639800782950928e+01,1.704076074705483279e+01,-5.704537050825564393e+00
-1.384610006244178493e+01,1.560775719103950721e+01,-7.402402672857255617e+00
-1.320410439419908499e+01,1.670388529498267616e+01,-9.116679326858317722e+00
-1.231684998334240433e+01,1.754952707388963518e+01,-1.079949996209136387e+01
-1.112345010521480759e+01,1.798142724627135181e+01,-1.231817959553894148e+01
-9.549296543383334779e+00,1.816667052617193789e+01,-1.356171791965240914e+01
-9.828411561522294448e-01,2.008363610737375637e+01,-1.620763697497058331e+01
-3.443687763383952216e+00,1.940776890917037178e+01,-1.592583205992029249e+01
-5.669942081343663176e+00,1.928182386634123446e+01,-1.531716860147450987e+01
-7.655837067382108785e+00,1.903287138550675195e+01,-1.452034303791205083e+01
1.398412177509349874e+00,1.994282172143149978e+01,-1.650656909100035463e+01
3.921199279050803455e+00,1.997315665103729287e+01,-1.658350388319080437e+01
6.129259965303777591e+00,2.027980207956393244e+01,-1.642091131555173078e+01
8.480969168644225675e+00,2.016553562160097712e+01,-1.600768867090047820e+01
1.064801932707971588e+01,1.997261760643287332e+01,-1.510578788066121803e+01
1.259469739067081484e+01,1.941866237478570412e+01,-1.370591142256793304e+01
2.500679048985143282e+01,2.144359278693634678e+02,-4.762929316984177319e+00
2.390853225676992366e+01,2.148422772657980602e+02,-6.497587199529942126e+00
2.208264380335244326e+01,2.157016883594375258e+02,-8.033296088106528288e+00
1.747203886346879287e+01,2.131845099657602134e+02,3.821901261878167588e+00
2.199034067428457107e+01,2.152570813157142879e+02,1.872454241756550175e+00
2.487767450813425540e+01,2.155070009847543702e+02,-1.612424689282693890e+00
2.408151589233956003e+01,2.166893411508617646e+02,-5.045383641613199188e-02
2.523896335951671688e+01,2.158796793487983905e+02,-3.437647808328474497e+00
1.945351969802767655e+01,2.150833271986439286e+02,3.130522083326603422e+00
1.484326487106888592e+01,2.136308603057012476e+02,4.599179058226182448e+00
1.159186801506692355e+01,2.201486870550982076e+02,-1.380129648646781604e+01
7.836654429006467026e+00,2.212133405503120684e+02,-1.508917337497705979e+01
9.902077534933635405e+00,2.216656039109670360e+02,-1.446729217656160138e+01
1.347226255140101969e+01,2.192664413945485649e+02,-1.297198174565332174e+01
6.136800967904138204e+00,2.229662282598436036e+02,-1.552706987966065810e+01
4.364502760490632127e+00,2.245170122582784984e+02,-1.586300683573114512e+01
2.138563968783991243e+00,2.237574949491644531e+02,-1.605488309858600715e+01
7.561111358947059102e-01,2.254102011977360576e+02,-1.610888466656978224e+01
-1.265687487991745463e+00,2.252490132363134876e+02,-1.584980143337464753e+01
-2.843881089382075622e+00,2.256148948394820195e+02,-1.523370703534360615e+01
1.727825901686025745e+01,2.193102471271355967e+02,-1.109590224382491463e+01
1.899861388867369172e+01,2.184321385679784271e+02,-1.010785111712545614e+01
2.073253487128213024e+01,2.174070330828863860e+02,-9.024363461454722568e+00
1.554694478332659280e+01,2.204585361426051975e+02,-1.202176505434860054e+01
-1.109961800924088138e+00,2.168130736338799238e+02,6.695097889321196760e+00
2.157690198238261470e+00,2.159028716871663391e+02,8.191981489132320604e+00
7.867783977771303228e-01,2.174255802853334103e+02,7.671356752452320293e+00
-4.010909411352537646e+00,2.185988001517874579e+02,4.448682632747964050e+00
-2.285716005160399078e+00,2.188191004029892781e+02,5.856460937372409248e+00
-6.246312612989745716e+00,2.211304089272105955e+02,1.685912228745400920e+00
-4.846244933757160922e+00,2.207444591472068112e+02,3.609924489395857528e+00
-8.422391432796722199e+00,2.245296756739229522e+02,-6.602891594263600616e+00
-7.475714154518353638e+00,2.250306619689623062e+02,-9.812479342560566309e+00
-8.402803107313374653e+00,2.261632737712251355e+02,-7.879370375236756985e+00
-7.593223714808372549e+00,2.237337019593645948e+02,-1.367456120840096823e+00
-6.808079026090480212e+00,2.231978843350771626e+02,7.261119604338075462e-01
-8.125579436266473721e+00,2.248507607959471386e+02,-3.458911352232952652e+00
-8.552519917500109869e+00,2.263625041043651436e+02,-5.292643590497708495e+00
-5.300598657782980894e+00,2.251318464570357207e+02,-1.298035552309742435e+01
-6.557773888381315253e+00,2.260991704266718045e+02,-1.132044537427151099e+01
-4.422405868970988863e+00,2.265771368623518924e+02,-1.404617970836655161e+01
5.782275524150644941e+00,2.150226311269863402e+02,7.530812818845447509e+00
7.993765047418929903e+00,2.156734923968405155e+02,6.749000118557290762e+00
1.017409876629627341e+01,2.147270031173595726e+02,5.976673707896080323e+00
1.247513104986386345e+01,2.143033890014767451e+02,5.244313782448013939e+00
4.083399927084364833e+00,2.166360717095961093e+02,8.169225587653251353e+00
1.421127289602291910e+01,1.781081354832016217e+01,-1.239692970615364587e+01
1.264052462402328381e+01,2.679075074381048438e+01,6.843590018081066262e+00
1.091164146140058477e+01,2.630886148766417776e+01,9.038023889254105825e+00
1.386140507815362710e+01,2.488513670285864521e+01,5.165971478075567447e+00
1.480497465407554358e+01,2.320824967501339842e+01,3.512043320317885353e+00
1.561517846458480641e+01,2.154380210177094668e+01,1.688143146192981447e+00
1.620304961402744226e+01,1.973623431342239343e+01,4.576572231893294429e-02
1.680342249743831218e+01,1.828613545130256668e+01,-3.958870270140630865e+00
1.670407045819327152e+01,1.784698813778390303e+01,-1.615579229993455712e+00
1.665209841604770702e+01,1.731425489629977932e+01,-7.123947754935118226e+00
1.700611637475340387e+01,1.647662696603604715e+01,-5.186255382509424194e+00
1.603520883262077490e+01,1.767583859884413044e+01,-9.172225698978357045e+00
1.544623267645881981e+01,1.657034367241044848e+01,-1.101877257731846349e+01
-7.686619925584954771e+00,1.726292982342401672e+01,7.857362289564109759e+00
-9.529394832550860173e+00,1.688052063296220240e+01,6.311162408957002867e+00
-1.103570374035257373e+01,1.649654354811302781e+01,4.527780061722373794e+00
-1.203998558689041332e+01,1.632951800647016682e+01,2.735236785406093496e+00
-5.565218775380071925e+00,1.730426589540657289e+01,9.086359290855092752e+00
8.910149396832158786e+00,2.538212005340499999e+01,1.089591808789378646e+01
6.919130036039062404e+00,2.435923255444273394e+01,1.217802067757253504e+01
4.884881462291382093e+00,2.312363600399393704e+01,1.281703466764883004e+01
3.299604474072044269e+00,2.046069348531802135e+01,1.256766159466605792e+01
5.054936318338199897e+00,2.116632046353883467e+01,1.285520938512094347e+01
1.895047059633816033e+00,1.902760357287875337e+01,1.202796218224439251e+01
4.042733013258352770e-01,1.879489355418322205e+01,1.138778736148106141e+01
-1.792450560826877037e+00,1.922025688285984657e+01,1.055320956500293050e+01
-3.264046736828341011e+00,1.723361224425360660e+01,1.004779589129324968e+01
-1.288747445924865787e+01,1.502120346907090997e+01,1.432442078758109361e+00
-1.395988383556693080e+01,1.623435618610256981e+01,-3.892849698065725228e+00
-1.384265456252405002e+01,1.546052600972776325e+01,-2.196339466145881936e+00
-1.361436001760990777e+01,1.466842469650827319e+01,-4.586845402914550007e-01
-1.415810505452251533e+01,1.487629930634000353e+01,-5.476780840752975443e+00
-1.434834255135372771e+01,1.320739281082657435e+01,-6.587609989251278719e+00
-1.403537225218423146e+01,1.364950637722997229e+01,-8.223209216675076760e+00
-1.350094169514295572e+01,1.451943790018304803e+01,-9.558402532933103046e+00
-1.281186979163220840e+01,1.537136708979366873e+01,-1.087230254428713039e+01
-1.186774108108244263e+01,1.572430821152203073e+01,-1.223899072540214839e+01
-1.058085303592066850e+01,1.586397667993898075e+01,-1.346742649346012755e+01
-9.244416425538169335e+00,1.530914190448989842e+01,-1.458108303396038252e+01
-8.241575176084602106e+00,1.698271033982386768e+01,-1.468130697172290766e+01
1.140782042826096188e-01,1.793033440977048087e+01,-1.685005287502850990e+01
-2.151901053730295388e+00,1.760928228090535441e+01,-1.662295469142001636e+01
-4.414160483988649020e+00,1.726228982880838458e+01,-1.621014347266763167e+01
-6.420370114390806293e+00,1.712701419676078984e+01,-1.553760762203912549e+01
2.568827048694799942e+00,1.801425037945810104e+01,-1.700763092478407046e+01
5.001361327816638891e+00,1.813202713680720279e+01,-1.697542920224577401e+01
7.237280141680184187e+00,1.829293506594878593e+01,-1.675314008334344962e+01
9.471115860552547616e+00,1.812852874948552184e+01,-1.620808029124657779e+01
1.144859370114959063e+01,1.775534832293786280e+01,-1.517068414202592841e+01
1.314042904362182540e+01,1.702936071481177649e+01,-1.390568748202326965e+01
2.489146966176450348e+01,2.165801942776721205e+02,-5.207430740576256767e+00
2.368694577418015257e+01,2.169341478249165505e+02,-6.817708378697240335e+00
2.256969053425894955e+01,2.183770894973860379e+02,-7.824684820234065086e+00
1.674009218465520377e+01,2.154196573450995800e+02,4.046596225169516003e+00
2.098784928199356159e+01,2.171132792737412842e+02,2.542096587056644097e+00
2.297233468287098290e+01,2.178268834955553928e+02,1.219646606096844721e+00
2.503632845363920012e+01,2.176319603802181746e+02,-2.120887043520404802e+00
2.447617876131296555e+01,2.190079192194694713e+02,-6.420615104456466327e-01
2.522759409371844441e+01,2.181481739461698339e+02,-4.041898885084449944e+00
1.842200536637081854e+01,2.171430384474588209e+02,3.586053255278361718e+00
1.431952404842629356e+01,2.160149892217530123e+02,4.765765754030452328e+00
1.391754058898096247e+01,2.218290769821539641e+02,-1.283045254328270524e+01
1.204375475412472873e+01,2.223680761038492619e+02,-1.367139077066494934e+01
8.425701113249198571e+00,2.236225680292258460e+02,-1.497729574582827183e+01
1.068138983918647256e+01,2.241541627214570838e+02,-1.424347274244855477e+01
6.753154591155535513e+00,2.254287439481133219e+02,-1.544940176217053995e+01
2.697568414369150958e+00,2.262174259781794490e+02,-1.609763078691980098e+01
4.963638395937051584e+00,2.269503971583899329e+02,-1.583284269780106968e+01
1.148197586830740136e+00,2.280221811805163838e+02,-1.619880461120837367e+01
-5.095533341334368416e-01,2.271626261818489638e+02,-1.604330659999274644e+01
-2.093702292527097164e+00,2.279885952443161727e+02,-1.566815770785327366e+01
-3.494166808937667845e+00,2.278080928861164409e+02,-1.489473990598231090e+01
1.929800348667041376e+01,2.208933574033796106e+02,-1.005705782071563803e+01
1.753341600975547721e+01,2.216687920916071732e+02,-1.105209612279537268e+01
2.094574664007095066e+01,2.196464803440475748e+02,-9.005767016723495999e+00
1.581582740901185069e+01,2.230901551075008911e+02,-1.196674015833899496e+01
-5.692327585080114716e-01,2.189732736489942511e+02,6.937138563179309436e+00
2.478725609383141126e+00,2.183786752786283216e+02,8.231531392389928925e+00
8.612876151158719296e-01,2.199426490398093961e+02,7.627357070908528769e+00
-3.193706913728092900e+00,2.207382224443504413e+02,5.204346970585419285e+00
-1.160635589691370484e+00,2.211105198845870063e+02,6.596313781185878966e+00
-5.558239896508613498e+00,2.229173264936757732e+02,2.769087218113958304e+00
-4.093889367239915700e+00,2.228298074830308622e+02,4.390543886707671817e+00
-7.945085185115114967e+00,2.276064394702947880e+02,-9.136732897830533773e+00
-8.651458875176373908e+00,2.280241364496897631e+02,-6.758094093451596507e+00
-7.853071972309835225e+00,2.261082057773396912e+02,-1.682254763533696185e+00
-7.191376840137500892e+00,2.255857465823223151e+02,1.939877523633777301e-01
-6.161361483805226413e+00,2.249764003646583603e+02,2.051036093982441688e+00
-8.327845969279390914e+00,2.273871869457390176e+02,-3.257651875229989002e+00
-8.763773501275657907e+00,2.289293740905007155e+02,-4.806473423054646865e+00
-5.668566468040486583e+00,2.279030297124383537e+02,-1.264552908041279444e+01
-6.917701983979166691e+00,2.282044697388512873e+02,-1.087803664378107804e+01
-4.643233896134967509e+00,2.291333629557070992e+02,-1.391023940414875071e+01
6.473750313795935796e+00,2.172956915881549094e+02,7.350562120178122605e+00
1.002270999533528695e+01,2.168756886245101612e+02,6.071763258662006280e+00
8.700266060156703674e+00,2.183429993609866528e+02,6.534765348174932598e+00
1.212871331249327511e+01,2.166961805328023729e+02,5.402854731143981404e+00
4.900259278559959242e+00,2.187313300569074102e+02,7.965858399621934538e+00
1.478302928381293668e+01,1.524169913568195689e+01,-1.265982243804124074e+01
1.247619350011924766e+01,2.472298143851460139e+01,7.405376849855928256e+00
1.065512738018750127e+01,2.414304114143088853e+01,9.597532466719664868e+00
1.364776628302836770e+01,2.261359106042608147e+01,5.968321322498272963e+00
1.474408617968569857e+01,2.109828910253113676e+01,4.149197521114007969e+00
1.563648600012291645e+01,1.939622259560078987e+01,2.344667060774256129e+00
1.634061076256627132e+01,1.746288104334177760e+01,6.187600217978532768e-01
1.706317244713666526e+01,1.602938100242362296e+01,-2.974938122660748974e+00
1.686577620059252780e+01,1.544510396918042261e+01,-6.898053406421240652e-01
1.707725531462766710e+01,1.478495414239053574e+01,-6.912589199076055735e+00
1.645250910926872123e+01,1.567399260424483387e+01,-9.012718807530848864e+00
1.737192207466515725e+01,1.419358625207383184e+01,-4.710398975731962423e+00
1.603244970255617119e+01,1.437481218117955706e+01,-1.094548043502101997e+01
-6.908785731604439206e+00,1.531587975355014564e+01,8.672048062424570603e+00
-8.873676514348364464e+00,1.502576992866971395e+01,7.367174185259189656e+00
-1.050733669077187926e+01,1.468621792479240362e+01,5.772908036039895663e+00
-1.192696350362088253e+01,1.446459182129508925e+01,3.750832624047096608e+00
-4.486290212048012371e+00,1.529833708604376064e+01,9.744185660251323711e+00
8.816680478560199319e+00,2.310154539453933253e+01,1.126511519202867007e+01
6.905267012062425991e+00,2.224836855107424327e+01,1.242469141308350444e+01
5.023526057435956815e+00,1.902482528114182614e+01,1.300502286028416776e+01
3.348258366885041859e+00,1.818015881789327182e+01,1.262255376085994918e+01
6.904247296330225936e+00,2.025749925085397507e+01,1.266421628888233286e+01
1.722957953939799225e+00,1.703348888342860334e+01,1.193183938688528478e+01
3.821267315203868975e-01,1.617434853752369150e+01,1.142537560508023375e+01
-1.083633905311440770e+00,1.729593918565523225e+01,1.090757919929414932e+01
-1.910236212581365223e+00,1.512254964112127809e+01,1.066690213288480038e+01
-1.378812683900650171e+01,1.294338071013589797e+01,1.216960377967888363e-01
-1.313023213807355205e+01,1.293052419653862728e+01,2.012217752149555672e+00
-1.427593036939969195e+01,1.406640148235238641e+01,-3.684997852776417560e+00
-1.415777901118066850e+01,1.334758401935877536e+01,-1.867426743823648927e+00
-1.458424874037091001e+01,1.253546228345608426e+01,-4.919678874621939535e+00
-1.476339208446590945e+01,1.107558206874811191e+01,-6.398701123276537395e+00
-1.444335897138469349e+01,1.160905134554962004e+01,-8.209351148629369987e+00
-1.388083791524090671e+01,1.237658002872161944e+01,-1.000836460550691420e+01
-1.299098997151068957e+01,1.323349576858531940e+01,-1.155892810797304548e+01
-1.179479740896199758e+01,1.360343178035066636e+01,-1.313869877880959081e+01
-1.033045044239074883e+01,1.350718644177268679e+01,-1.438094653848239979e+01
-7.408597827490474685e+00,1.504008871072694653e+01,-1.561478142322535767e+01
-8.517170381900143639e+00,1.319329408715751129e+01,-1.555315021220667404e+01
1.244601671016585698e+00,1.594628734192263764e+01,-1.749997466040350602e+01
-1.020831518790210168e+00,1.555518757388091267e+01,-1.735438286338926162e+01
-3.294871117547213402e+00,1.529615685203781084e+01,-1.701300624932503425e+01
-5.415234535641253899e+00,1.507899542380812008e+01,-1.642475107469986995e+01
3.682147409515902581e+00,1.614626191004376921e+01,-1.754044169943607301e+01
6.029902187213700415e+00,1.623736002982637316e+01,-1.744780277772279575e+01
8.197935243378363879e+00,1.624287985516074428e+01,-1.714181149993648035e+01
1.025731883082410079e+01,1.592976908175027440e+01,-1.648087348146718512e+01
1.203710875106358813e+01,1.548739130230416272e+01,-1.544605385893896887e+01
1.359375407037748928e+01,1.494702286581803108e+01,-1.421569332535861108e+01
2.447895088947097975e+01,2.187845555530372792e+02,-6.031396990014968651e+00
2.297151720165496158e+01,2.205587318780291071e+02,-7.649879543330019516e+00
1.605751433402906159e+01,2.179002472985334578e+02,4.301290768764649997e+00
2.183140830514631858e+01,2.194924834028285545e+02,2.156572989088143544e+00
1.979492309322779420e+01,2.188945789864836513e+02,3.173336747414545300e+00
2.361104470476140094e+01,2.203999855619504729e+02,6.666353915025595711e-01
2.521402180173080865e+01,2.197940446694578327e+02,-2.624238115344446953e+00
2.488388600357832559e+01,2.213893982166330545e+02,-1.254094665554347898e+00
2.524284671004028624e+01,2.202515435973922706e+02,-4.508591386210433427e+00
1.766534208565751385e+01,2.195844703524964814e+02,3.948923851554383191e+00
1.380622088930876679e+01,2.183707968296401702e+02,4.945696635649433404e+00
1.325201295368198551e+01,2.243177268936366033e+02,-1.320088616639515955e+01
9.102683461986904589e+00,2.259926052990698224e+02,-1.480974819705392598e+01
1.166733608268502742e+01,2.262346309374503903e+02,-1.388832647854798630e+01
7.486658204818054330e+00,2.279099729077315715e+02,-1.531258920980056004e+01
3.067879410684131614e+00,2.286697872659204904e+02,-1.611903760501508742e+01
5.228547208428649284e+00,2.292912015969411641e+02,-1.582938538819739271e+01
1.275310910377468687e+00,2.305720081880735108e+02,-1.627314557943583395e+01
-5.159677301428740037e-01,2.294385023979073139e+02,-1.611801912245653412e+01
-2.205558691694104567e+00,2.306045344726925350e+02,-1.573503973828380431e+01
-3.491698933130668259e+00,2.300669102466564766e+02,-1.499693472725831533e+01
2.147291964062494429e+01,2.218499185274913543e+02,-8.792778261889004909e+00
1.990816143553931994e+01,2.232761633804919654e+02,-9.814551311646066978e+00
1.800653490635463427e+01,2.237815534008273630e+02,-1.086938496676492960e+01
1.708115977233767779e+01,2.254777720767471862e+02,-1.139080509880753311e+01
1.517248568940017073e+01,2.252622710714958316e+02,-1.233070372509758350e+01
2.125840755519221581e+00,2.213151113524099003e+02,8.071888778601453041e+00
3.596919665295719160e+00,2.201474005160708600e+02,8.257748314502080689e+00
4.518736822345523763e-01,2.224138818931267281e+02,7.479192756958125798e+00
-2.500170579889788414e+00,2.226566325174388226e+02,5.728750991402335124e+00
-1.096676495665349194e+00,2.237275294208417336e+02,6.669354353420587245e+00
-4.570138746716308376e+00,2.249684212124471401e+02,3.952454026175269863e+00
-2.920922846677141749e+00,2.248949683865049280e+02,5.445742080990077838e+00
-8.484892955497789657e+00,2.295406453885148608e+02,-7.911527255122422275e+00
-7.745377698042077874e+00,2.299804532421853764e+02,-9.573846916009815189e+00
-8.888241026453565397e+00,2.305981333798329445e+02,-6.219489760216930563e+00
-7.753614794657107012e+00,2.282292651996164921e+02,-7.520696213893218740e-01
-6.835194315813940769e+00,2.274434836059261613e+02,1.247693101592498799e+00
-5.556857882544179006e+00,2.267128946225711843e+02,2.944035184878754485e+00
-8.389500975607852240e+00,2.295462622022472488e+02,-2.643335477776827425e+00
-8.816930716677804369e+00,2.311256702131043710e+02,-4.334116801930182561e+00
-5.584388567076556953e+00,2.307654859560795160e+02,-1.288100128663757005e+01
-6.599448705554650907e+00,2.302242188957293365e+02,-1.146815149362172548e+01
-4.656301416778573454e+00,2.318285588017016607e+02,-1.404650881080800140e+01
7.093894571483558842e+00,2.197480197443454983e+02,7.156410393533999326e+00
1.120605060859893420e+01,2.190231612785780726e+02,5.696429224540070280e+00
9.410502188198597295e+00,2.206667570224631447e+02,6.344510484791149985e+00
5.544888545013792580e+00,2.211870967153026299e+02,7.723064610508606265e+00
1.443630506958038850e+01,1.300761238959917243e+01,-1.412075680671402367e+01
1.563228742805727656e+01,1.281575789422134903e+01,-1.260296445762245376e+01
1.214599712184156211e+01,2.277179198417104899e+01,8.156584745071452147e+00
1.056187913201896222e+01,2.194276918914469121e+01,1.003598049765666822e+01
1.367486783550950946e+01,2.023675603143325930e+01,6.437268133065199294e+00
1.227283527397305818e+01,2.081696188865289443e+01,8.337942609659759086e+00
1.479101543189482726e+01,1.894155963133690790e+01,4.640266965819643374e+00
1.572450469966375763e+01,1.721381024697302209e+01,2.874519204272895756e+00
1.641792951018103253e+01,1.522455718249247525e+01,1.555390531636252405e+00
1.734235129309769619e+01,1.383349180241692622e+01,-2.356274603872678952e+00
1.708642616139634640e+01,1.311040279660059049e+01,1.739422844167854976e-01
1.692142767081664800e+01,1.358663713807321649e+01,-8.832665477374593621e+00
1.756561694602451240e+01,1.237575341592108025e+01,-6.502387928041409637e+00
1.774323056969580392e+01,1.197882928307089045e+01,-4.110023962757473726e+00
1.668745124454147799e+01,1.216571992935308799e+01,-1.075203927115800795e+01
-6.001456565488766159e+00,1.341660722820723173e+01,9.352008673212191425e+00
-8.113233745214362358e+00,1.310973000819581813e+01,8.324666693762008407e+00
-9.796766927034113337e+00,1.279404926790376607e+01,7.007406789494656785e+00
-1.129407342511295909e+01,1.261004939787414791e+01,5.416774813019422652e+00
-1.240679222867763443e+01,1.241172837692349518e+01,3.720180219018261347e+00
-3.588535306127405455e+00,1.327047639001068724e+01,1.024482428516968469e+01
8.823852360333242828e+00,2.082975540150117411e+01,1.157350211469974610e+01
4.986429439929401575e+00,1.673140429782630179e+01,1.313579834710177607e+01
6.911590064403176470e+00,1.837619233281829167e+01,1.286142100195005611e+01
3.095144297328090488e+00,1.617048032091047105e+01,1.254998937870985110e+01
8.993687817099385029e+00,1.863119581214956355e+01,1.179224748847077997e+01
1.858354959987480015e+00,1.475265008962178115e+01,1.205378426537970427e+01
-5.941955981080937477e-02,1.403648659522834663e+01,1.136704597208188972e+01
-1.640259996471213455e+00,1.246769209045843319e+01,1.093048233569734506e+01
-1.397437397160566164e+01,1.109366906751969140e+01,9.072030331319513863e-01
-1.442877557661498500e+01,1.140934174853282457e+01,-1.206970769843870528e+00
-1.328159438124610148e+01,1.064643626585231218e+01,2.859239454236820244e+00
