-7.981971032014874012e-01,8.603604677751538077e+01,-1.107217177603483016e+01
8.893746996974755348e+00,9.292639063358416252e+01,-8.220609772964962758e+00
7.501792535685071428e+00,9.098727738812928578e+01,-8.826490152446641702e+00
1.250484306915586430e+01,9.620609394257107283e+01,-5.836812075011987844e+00
1.157085622529159252e+01,9.449479378793857620e+01,-6.580018992573670289e+00
1.052167252336792380e+01,9.259707001981907126e+01,-7.246320113343911018e+00
6.379419837462247500e+00,8.890188701521447001e+01,-9.268012564829525957e+00
3.066015833630634013e+00,8.712826515766539615e+01,-1.031343717881921229e+01
5.153360653130506286e+00,8.684459705457027212e+01,-9.714372742119337545e+00
1.372822937356273698e+00,8.535016811344731025e+01,-1.070725367666022798e+01
1.338751258866908067e+01,9.785105336543244903e+01,-4.994891488910823796e+00
1.421708053560321972e+01,9.958044450135940906e+01,-4.092850755807786456e+00
1.569764748244133656e+01,1.018123582503518207e+02,-1.767545511319045026e+00
1.608913681749636382e+01,1.038224065560730907e+02,-8.660452125642148502e-01
1.609403258826602112e+01,1.060241981182600171e+02,-1.518044842681375961e+00
1.501517190660576517e+01,9.962092354814932094e+01,-2.827898496459958722e+00
1.649824558064474900e+01,1.083926312378056735e+02,-9.716729169891218376e-01
1.675496201578399891e+01,1.105196727817862978e+02,-2.529847023480162882e-01
1.696828387595235199e+01,1.126975016179814730e+02,5.126524880043548116e-01
-1.384220762250681247e+00,9.833827652480871961e+01,9.396825151202301996e+00
8.748687460464674714e-01,9.909660542179126708e+01,9.545386265292094663e+00
4.245532397979998152e+00,1.082234334511051372e+02,8.479995675609298900e+00
3.357800979079096138e+00,1.061096076313080232e+02,8.790553330956718980e+00
4.373517974699220545e+00,1.041104856083745744e+02,8.547026530621732121e+00
3.524303983563044085e+00,1.019278719674056930e+02,8.872760426016498059e+00
2.929936672871315650e+00,9.953433273435692286e+01,9.125326978255859700e+00
-1.580336317803890278e+00,9.600432745095790210e+01,9.432502759065954479e+00
-5.833752731615464704e+00,9.069578640206489695e+01,4.860440287188945163e+00
-6.698074362186353881e+00,8.987062849182358093e+01,3.239863513127542838e+00
-4.795779324168598201e+00,9.145988843896756748e+01,6.538105953717597174e+00
-3.564851238187218385e+00,9.209170844988237548e+01,8.036176067396914036e+00
-6.923133020899876477e+00,8.743969396214737344e+01,2.968830880209527123e+00
-7.702910091901251199e+00,8.673046898101213742e+01,1.210765453004939651e+00
-8.506358269826350238e+00,8.641320020851983941e+01,-9.039517359491191506e-01
-9.153338585504359415e+00,8.733001924018353179e+01,-3.133871257123053589e+00
-9.554476502155853979e+00,8.547715371788596883e+01,-4.608154539043161080e+00
-9.335995216025658294e+00,8.559912264388378844e+01,-6.863838828757920396e+00
-8.479447019129953134e+00,8.560309074539685525e+01,-9.300485329034650306e+00
-6.753100462657307901e+00,8.447159652848054634e+01,-1.081024011074858571e+01
-4.796001132381785936e+00,8.563918955358300877e+01,-1.124110291683244256e+01
-2.341443558892632115e+00,9.273680066097890062e+01,9.112119193093114689e+00
-9.566829979330178091e-01,9.406999208194980611e+01,9.644723893408620796e+00
6.526176725394658540e+00,1.266291243762108394e+02,7.331429862136541686e+00
6.623181588420914423e+00,1.292041727208384145e+02,7.223064720813827222e+00
8.018923100202751897e+00,1.249448805529626441e+02,6.951573549294526089e+00
7.863203083990840447e+00,1.181624934229949133e+02,7.113129424806622580e+00
8.377588614446837667e+00,1.206025604256611246e+02,6.920409257606017661e+00
9.073548426622773277e+00,1.228181914984940448e+02,6.634563309577007573e+00
7.700322741176523600e+00,1.157924160589243598e+02,7.193917572823490758e+00
7.474213303994364566e+00,1.134199343392793509e+02,7.304295585014809689e+00
6.913871808257193052e+00,1.317033363338998129e+02,7.030937014144459596e+00
7.113983671003699882e+00,1.110539756767178403e+02,7.473968770580910359e+00
6.323061547156648032e+00,1.086569097568174698e+02,7.776669193285012938e+00
1.434918156143198686e+01,1.480644480626088182e+02,-8.788229444243617294e+00
1.373787962728917122e+01,1.501203944150998950e+02,-9.267960026773055304e+00
1.746705240445677276e+01,1.445995487037931468e+02,-6.307425669962536396e+00
1.727833591006026026e+01,1.467806152755796063e+02,-6.756858231363478851e+00
1.604881225433205927e+01,1.475801434344753886e+02,-7.756694066214595118e+00
1.844351994260638605e+01,1.439054312502954929e+02,-5.195513184316235211e+00
1.910393372588218242e+01,1.339495188282473634e+02,-9.440086677588458430e-01
1.902862442438600965e+01,1.316675474525974039e+02,4.943716454784632952e-02
1.909399517877873720e+01,1.359364043612370665e+02,-2.130864164048556830e+00
1.891544047171775134e+01,1.380248243918187825e+02,-3.108845623943711001e+00
1.846368956400701222e+01,1.295933202044195696e+02,1.237326031207245380e+00
1.756618145946866960e+01,1.274066830237712509e+02,2.213841950498849354e+00
1.915707715771279140e+01,1.407543138816236592e+02,-3.514605559583060757e+00
1.927487760105999826e+01,1.431904614073663708e+02,-3.968268849748408655e+00
1.747108029549079689e+01,1.212605397281625415e+02,1.651117105850504974e+00
1.723001879136633718e+01,1.234681506979302270e+02,2.321275297388590175e+00
1.657176252328451582e+01,1.252818406537175093e+02,2.961548639325060961e+00
1.703198210820762171e+01,1.147826784658647625e+02,1.133031167955795393e+00
1.694680998301191366e+01,1.167059534948874102e+02,1.651324476697789700e+00
1.636763263616955300e+01,1.195894365080709889e+02,2.745953342523399954e+00
1.609109216753287441e+01,1.174028754914503878e+02,2.812904484489335388e+00
-2.877436853793167160e+00,1.577663656939181180e+02,-1.365969478401699710e+01
-4.435046267462247727e+00,1.565788505864902334e+02,-1.297848757079531978e+01
1.295096462378688074e+01,1.521706750576092873e+02,-9.790350752689045422e+00
5.744935826934209899e+00,1.552391487760842210e+02,-1.263444144085482712e+01
7.841982732714056326e+00,1.546799984963896577e+02,-1.193402532560206808e+01
3.402706625416133335e+00,1.556964666449340484e+02,-1.325661419278386255e+01
9.887711613903695351e+00,1.540926328505262859e+02,-1.117126142251898813e+01
1.201355918173897308e+00,1.563487298970899815e+02,-1.367218800153558433e+01
1.201329605742950335e+01,1.545656703898530395e+02,-1.040723891720746153e+01
-1.376141766563534929e+00,1.591132532237298278e+02,-1.392395672800090978e+01
4.945066869717447133e-01,1.584201795627087392e+02,-1.386216763350396697e+01
-5.719137778323293730e+00,1.577799861310548408e+02,-1.151227484469485773e+01
-6.538206814428855651e+00,1.565204792733719614e+02,-9.717273335764410547e+00
-7.102986732509508627e+00,1.551287244782462835e+02,-8.044099281648430022e+00
-7.161613941372880099e+00,1.532058392405435825e+02,-2.783051101009924366e+00
-7.348007978409084373e+00,1.562975720138082352e+02,-6.507232289398286795e+00
-7.395418266185845191e+00,1.558030476345404338e+02,-4.915075723599045432e+00
-7.254948172472174939e+00,1.554709724846633776e+02,-3.282847687957930916e+00
-6.744173873223449078e+00,1.529164090763011927e+02,-8.795284185109757402e-01
-5.339986279868329966e+00,1.541525057101339655e+02,2.495923733111990117e+00
-6.266659729024222969e+00,1.546112092257134520e+02,4.934346070346613544e-01
-4.162453127360874028e+00,1.536317398964978906e+02,4.435781156332541997e+00
-2.702681340775233920e+00,1.533192715804140391e+02,6.224287859906382891e+00
-2.013011921746024058e+00,1.516966271753357489e+02,6.961562847924900765e+00
-1.252894149021607895e+00,1.499967698576000146e+02,7.649013651519272372e+00
2.573870452945451248e+00,1.425090631385596112e+02,7.947652217041355271e+00
1.910501903979490379e+00,1.449400249635311297e+02,8.089732048749834092e+00
-2.383335573469729241e-01,1.481148479944362464e+02,8.098476483101256562e+00
1.702877441088400445e+00,1.471812203304618265e+02,8.067066368815893895e+00
5.216445312632071563e+00,1.353589804223075248e+02,7.325995913998955444e+00
4.639517849645669045e+00,1.416878740792683118e+02,7.314316952271092021e+00
5.331266155161261011e+00,1.394531977421686406e+02,7.155719843017898540e+00
5.998972973294881328e+00,1.371587210788321727e+02,6.981797923229468239e+00
6.951694490495283318e+00,1.341246058219309987e+02,6.888730274727411285e+00
-2.651561919077201068e+00,8.466284394202943986e+01,-1.126149190890613383e+01
-4.186871415121764528e-01,8.375172050210697705e+01,-1.105046301728288327e+01
9.418131792069793562e+00,9.065474470458988776e+01,-7.894477628190987417e+00
8.239502839074322793e+00,8.865622085781011208e+01,-8.465445962814346359e+00
1.363169329832392584e+01,9.560590560421438511e+01,-4.572004260936392228e+00
1.287490510222735551e+01,9.390030924560727499e+01,-5.366428265328625713e+00
1.201445389161496813e+01,9.215684110162051468e+01,-6.129792672001775244e+00
1.106699447341934928e+01,9.032614016690095582e+01,-6.833756948688254340e+00
7.164560410387215583e+00,8.647967856441330525e+01,-8.970867728379014139e+00
3.604775083022174975e+00,8.490917304283604494e+01,-1.018975388618419053e+01
5.829867596210519309e+00,8.451719465251863994e+01,-9.516116326907242851e+00
1.892253029889730875e+00,8.313522526061784390e+01,-1.063973403855084143e+01
1.433491556162519842e+01,9.747890878684484051e+01,-3.733472202657810435e+00
1.562536090148372736e+01,9.946660944051444631e+01,-1.251405280328303782e+00
1.590344130427172686e+01,1.014641586207642661e+02,2.127651464274293858e-02
1.633348505722504740e+01,1.063634925468644923e+02,1.244160774750371345e-01
1.599618428595721298e+01,1.043980400039782950e+02,9.389260309696254581e-01
1.551305274130262646e+01,1.024641368769911480e+02,1.571001392139513619e+00
1.513145183613044154e+01,9.741918128982504754e+01,-2.357415989393111033e+00
1.630623825554354767e+01,1.084175253164194714e+02,9.722726889820059171e-01
1.629779928264986211e+01,1.106119496937812841e+02,1.653820277199592681e+00
1.608621269543500532e+01,1.128156916792418514e+02,2.347059928775683701e+00
3.159587072867058311e-01,9.701802769673355442e+01,9.643743958865899302e+00
2.538021760068149391e+00,9.695077105872803713e+01,9.315447794692762074e+00
5.476080050200902605e+00,1.063198839781011742e+02,8.153779680697262222e+00
5.732574706655400476e+00,1.022911124265007317e+02,8.159239984048564764e+00
6.567342639421021033e+00,1.044600735171550099e+02,7.826681320324446745e+00
5.023311963557096860e+00,1.001661381179722099e+02,8.472079694260521876e+00
4.455111507670263649e+00,9.806246072690977655e+01,8.710085847610312015e+00
9.863575430357247598e-01,9.510157636352694510e+01,9.698903917147914555e+00
-6.042638837672541285e+00,8.829419601769301096e+01,4.623611400828222529e+00
-5.028220222607891365e+00,8.913172655472152428e+01,6.258310247592890008e+00
-3.734498945536900649e+00,8.981015752510751327e+01,7.782662381411485697e+00
-2.280079708720108123e+00,9.031201819902375405e+01,9.110476255886194252e+00
-7.134905067530252332e+00,8.508952821153133073e+01,2.653017863731361281e+00
-6.204317276375725498e+00,8.573868618809898123e+01,4.426014638171391624e+00
-7.984597388486655234e+00,8.458621415410853217e+01,7.015710964150638773e-01
-8.686469965201908394e+00,8.385188288644907573e+01,-1.132293273479164863e+00
-9.093521128770143847e+00,8.533597890399180130e+01,-2.537468481759993733e+00
-9.385221564168917396e+00,8.334940013032012018e+01,-3.388394988497667626e+00
-9.592151481053337037e+00,8.343880397266342186e+01,-5.548477366910923969e+00
-9.137113973006492529e+00,8.362938388011379232e+01,-7.807290161200358014e+00
-8.186616808283236679e+00,8.315489322410753914e+01,-9.846452916631573515e+00
-6.357253777390788230e+00,8.211924757439550149e+01,-1.096575323417149050e+01
-4.584830872579493288e+00,8.340197183575165241e+01,-1.124800715398932383e+01
-6.772681073297173171e-01,9.184248797396132602e+01,9.751077302609193254e+00
1.196477059628513473e+00,9.299627013477298476e+01,9.763125245159537613e+00
8.082197716357200079e+00,1.278772274593287932e+02,6.830567564653691193e+00
8.365036646214615956e+00,1.301368453158145542e+02,6.673201402484441047e+00
9.333463984410141023e+00,1.265942914684326297e+02,6.483642284710722237e+00
1.001647026259005102e+01,1.246884509477376355e+02,6.253797266801349508e+00
9.472752103317702677e+00,1.187972878686381790e+02,6.586274020745012336e+00
9.397454407336484294e+00,1.165312875388950715e+02,6.595968045040265793e+00
1.010765241232867950e+01,1.207276137914481069e+02,6.325638723222116511e+00
1.086288301929167943e+01,1.227383000096376264e+02,5.984169722158421578e+00
9.122029426248310813e+00,1.140901654114301920e+02,6.723000517260771858e+00
8.959701927702258928e+00,1.115998176728227236e+02,6.817091199335276741e+00
8.675396717070508856e+00,1.323747305716064204e+02,6.468969241381447688e+00
8.209556966547017609e+00,1.091160617875673324e+02,7.119929232436732036e+00
7.422374891591044133e+00,1.067650480368935177e+02,7.454313574750795368e+00
1.569730764159787206e+01,1.498452649941513073e+02,-8.200821633939295197e+00
1.510003153694127320e+01,1.519676983613436505e+02,-8.742139908899638101e+00
1.846763096750780164e+01,1.462186696083433617e+02,-5.571007493459484650e+00
1.717610069783861704e+01,1.492640992307605075e+02,-7.151955778850327405e+00
1.838237973969716421e+01,1.484136569211930237e+02,-6.002069961255170227e+00
1.938858052147432076e+01,1.455827274530214197e+02,-4.317331609627444777e+00
1.873105233535698133e+01,1.336224301114085904e+02,1.000741719346061709e+00
1.937838997875302738e+01,1.358601311423672087e+02,-1.455805282714686122e-01
1.804031737908173127e+01,1.315943472479997922e+02,1.993037997932380012e+00
1.952462986016005075e+01,1.378138360775536171e+02,-1.261600812561515905e+00
1.966120222298993525e+01,1.399451424201555767e+02,-2.107376901445324968e+00
1.705332728129266684e+01,1.294106994510600828e+02,2.808936203502553575e+00
1.594010994369794787e+01,1.272652536173215196e+02,3.478721567663892511e+00
1.988283590232771303e+01,1.424492984073792172e+02,-2.544634462185515478e+00
2.009938067650334403e+01,1.448339822100696495e+02,-2.856762273889909665e+00
1.630639438597721735e+01,1.216184632914433763e+02,3.024508884476189152e+00
1.559667816560833131e+01,1.233059429574978481e+02,3.598214729789542599e+00
1.491255927717632446e+01,1.252192649207304669e+02,4.031514109365507359e+00
1.590968985700257221e+01,1.148922555571647877e+02,2.772017199072442928e+00
1.505979195304274043e+01,1.184363126076136155e+02,3.783277931998302979e+00
1.490443994876557809e+01,1.209246382547215575e+02,3.986756876665689120e+00
1.481306723589112551e+01,1.158426381825756124e+02,3.819400190482783231e+00
-3.123483969372692570e+00,1.601608622546757204e+02,-1.372207116295988349e+01
-4.515978770906844630e+00,1.590812201225405147e+02,-1.303705416232577896e+01
1.414061131910307623e+01,1.539379004611249115e+02,-9.421624477087952698e+00
7.535401457610515941e+00,1.570137192202360268e+02,-1.224169603935790462e+01
4.885613100091221739e+00,1.572087327211092429e+02,-1.301532878452108832e+01
9.784364535843712574e+00,1.561766818188726234e+02,-1.140797928953439744e+01
2.643820009586990594e+00,1.579207106677008028e+02,-1.355756612322531396e+01
1.362676995159375082e+01,1.562373209517676571e+02,-9.864426817101366041e+00
1.173831457991878580e+01,1.571642033008009776e+02,-1.075758292541775951e+01
-1.879041697613171635e+00,1.615113303570608707e+02,-1.405238403079116161e+01
7.675956918175685928e-03,1.607978304814951400e+02,-1.402908125285052421e+01
1.968900420361880066e+00,1.601745328429827850e+02,-1.380412275521641519e+01
-6.621102703510461041e+00,1.591367004327230461e+02,-9.472409511914072766e+00
-5.703793946950129978e+00,1.602203015477813608e+02,-1.171258345673653523e+01
-7.090526097198496913e+00,1.576197675795408770e+02,-7.881699008222357250e+00
-6.920255018303659966e+00,1.551329886106239258e+02,-1.462648851348141932e+00
-7.399061934412344499e+00,1.583648382684606304e+02,-5.729510638809527379e+00
-7.360192323341294696e+00,1.578584461929179668e+02,-3.960906064096050727e+00
-7.086762371961983220e+00,1.574022496931830517e+02,-2.136852320050145693e+00
-5.635472742791302281e+00,1.564745934888305783e+02,1.879824622009213186e+00
-4.436036517810443947e+00,1.558972876429521364e+02,3.945477858863652543e+00
-6.527328346178777885e+00,1.568761051722905790e+02,-1.534369903374042110e-01
-2.929572875678430499e+00,1.553601694519116450e+02,5.902228481599316012e+00
-9.264097593690836518e-01,1.543615807561265569e+02,7.524923252156911602e+00
-3.814148080931278884e-02,1.521713620960094602e+02,7.921469918910661434e+00
9.447171838905674690e-01,1.498660313005923967e+02,8.112206230794026141e+00
4.088150199293009379e+00,1.440455902235595431e+02,7.461108179908151783e+00
3.801019115279721916e+00,1.462720780872547550e+02,7.510179095656589254e+00
3.105227907652453823e+00,1.486411719174169264e+02,7.642945528532059996e+00
7.748688417011555529e+00,1.362332464455065804e+02,6.517964370912878280e+00
6.036390471276137148e+00,1.432543999303924807e+02,6.801643291936315450e+00
6.667576887544928610e+00,1.409143828345283964e+02,6.655243775070037060e+00
7.355239444416723060e+00,1.387273431000208745e+02,6.519685148629303484e+00
8.710688247015863084e+00,1.343148438510562244e+02,6.342329097198767585e+00
-2.317826339397729640e+00,8.244460141323096991e+01,-1.125769075260114072e+01
2.969532555481535496e-02,8.153154294477968733e+01,-1.100560620677876322e+01
1.006748547746033573e+01,8.837353550036132788e+01,-7.487711512631202382e+00
9.011004540946943919e+00,8.652002030551265932e+01,-8.099705699966328609e+00
1.451832722221273642e+01,9.533949373558323259e+01,-3.219272140853163933e+00
1.391764061643551820e+01,9.343896824307870475e+01,-4.061293314237859775e+00
1.319546388652658919e+01,9.169920307877234222e+01,-4.900109554346181895e+00
1.242958876282910197e+01,8.996332549755001651e+01,-5.665045982097938193e+00
1.161920641186389958e+01,8.815730785637992994e+01,-6.404871882805752037e+00
7.932509147190467402e+00,8.404918095109024989e+01,-8.678292121701920436e+00
4.135005752876240059e+00,8.269646441831339700e+01,-1.009883198370213009e+01
6.331170761916102840e+00,8.223115856208927710e+01,-9.395300311137715354e+00
2.336122252536927846e+00,8.093846242647364875e+01,-1.059162825112502659e+01
1.557150453530878664e+01,9.707272872115281359e+01,-7.317777516070078647e-01
1.547204589689914300e+01,9.888585760929096580e+01,5.608207877840190037e-01
1.510507572087653472e+01,1.003413657217118669e+02,1.970637745402136431e+00
1.562010371199171033e+01,1.063334226400825315e+02,2.004229627992847540e+00
1.498808133384353525e+01,1.043068235010131843e+02,2.734521877776899590e+00
1.446585757683287454e+01,1.020810205388302023e+02,3.194313061993089953e+00
1.515517800641814716e+01,9.499913592752038483e+01,-1.816636170653551652e+00
1.540199867075577700e+01,1.084682782962307499e+02,2.668002293880423537e+00
1.525280525854059732e+01,1.109016568816345654e+02,3.129711768810973904e+00
1.471561641185724412e+01,1.132526101623443680e+02,3.785008424394181059e+00
4.448172741119522655e+00,9.588739560515213611e+01,8.792249051260466075e+00
3.031898863063521077e+00,9.436042776658442222e+01,9.297537358702495425e+00
7.692211035074301151e+00,1.024663102757159976e+02,7.389273583603603868e+00
6.911079064462699151e+00,1.002089740398860158e+02,7.790669416286554849e+00
8.450378078416820316e+00,1.047284964698612413e+02,7.071647948919608240e+00
6.310016594468864426e+00,9.781887055794220487e+01,8.106391448013845036e+00
-5.306858680881896717e+00,8.674594734162600673e+01,5.952855485598668395e+00
-4.055474350168364772e+00,8.752837899744528727e+01,7.507811900126021953e+00
-2.637004534679550538e+00,8.803448681238810991e+01,8.848280039154408527e+00
-5.092965480803774980e-01,8.979680922540045174e+01,9.897728698355969357e+00
-1.044950412692055686e+00,8.796810143389542702e+01,9.778435267987710233e+00
-7.451510145068155566e+00,8.277846108724411067e+01,2.070140296532027691e+00
-6.471418622033260348e+00,8.348232811679835663e+01,4.091436936359811760e+00
-5.338804507443351000e+00,8.396397857319095692e+01,5.992349772571060385e+00
-8.222251405994077444e+00,8.222663017373278649e+01,2.522718448034177996e-01
-9.020406828347693917e+00,8.170403949739228722e+01,-1.933316269779828289e+00
-9.563161271658142226e+00,8.117001916233512304e+01,-3.998157293379402510e+00
-9.563346580013234899e+00,8.137723541952721007e+01,-6.218143840563708835e+00
-9.056548652009826839e+00,8.142915317287825872e+01,-8.386123615797643538e+00
-7.877093867457606535e+00,8.078507988154071029e+01,-1.025156312982500850e+01
-5.898773528873379135e+00,7.978203806752637206e+01,-1.108904038944263704e+01
-4.191024385587555301e+00,8.112987729829626460e+01,-1.126153701360718884e+01
1.232977644344929402e+00,9.081052537119111889e+01,9.824749763456390284e+00
3.148008525021026571e+00,9.204351735723147954e+01,9.337646112299950119e+00
9.879583665370377688e+00,1.287432564309991108e+02,6.246611721100464365e+00
1.001855188495525795e+01,1.309271583227110511e+02,6.121309052096059133e+00
1.097637790325028284e+01,1.270123939169587999e+02,5.863318247279480033e+00
1.170570256915111429e+01,1.249874554746689341e+02,5.564203565299468579e+00
1.096922505518239710e+01,1.181230062029480337e+02,6.042610325694573348e+00
1.075706247655443804e+01,1.155253779655173219e+02,6.109316793049581307e+00
1.170801372746453595e+01,1.206160220745746443e+02,5.711013259956397192e+00
1.245809605519141350e+01,1.229711455103048223e+02,5.292056256725826913e+00
1.059010756912354978e+01,1.131954904525270251e+02,6.183560945253708141e+00
1.048707434128325566e+01,1.111283424743174635e+02,6.266163780874080658e+00
9.789120885628356916e+00,1.091155450373123728e+02,6.504646198544612901e+00
1.039800571480422064e+01,1.334433251338700472e+02,5.876231000231410206e+00
9.143398546183608033e+00,1.069331616899720387e+02,6.777050366898983214e+00
1.695256017367009704e+01,1.515574400718321897e+02,-7.565333829442215219e+00
1.635911332087073333e+01,1.535595260869444871e+02,-8.160421023237162785e+00
1.944556418374685336e+01,1.478332408154120685e+02,-4.692041137730974754e+00
1.830544046298648198e+01,1.506111841326509193e+02,-6.361961923033915056e+00
1.942530480652289171e+01,1.499746834800897375e+02,-5.087034419407074459e+00
2.027015547058899614e+01,1.471911244654906454e+02,-3.184135761120824970e+00
1.742000975052669531e+01,1.335918558559357905e+02,2.642478848689423732e+00
1.838760933851443724e+01,1.357383946081113777e+02,1.795998851966064791e+00
1.918978277062781501e+01,1.378562220146349091e+02,8.784130071350109148e-01
1.645905157278299313e+01,1.314504340647259255e+02,3.373243196131551880e+00
1.967340967151629627e+01,1.396981365022276407e+02,-1.231717935068181724e-01
2.001077238593409291e+01,1.416732941980393434e+02,-7.693510747603573563e-01
1.533953726826377562e+01,1.292737623059359748e+02,3.966349320425868186e+00
1.426118538776214351e+01,1.272433013339475707e+02,4.444470104845847480e+00
2.032915774941652387e+01,1.439266717095773345e+02,-1.038675456963473742e+00
2.064866506367367904e+01,1.463348540746974322e+02,-1.388023174735906196e+00
1.406937430847854031e+01,1.230529142063515735e+02,4.509047060091633696e+00
1.329547515013119785e+01,1.251363752109750038e+02,4.866858001686750868e+00
1.368782214679576370e+01,1.170233584623950946e+02,4.664638361488310458e+00
1.390271948860343265e+01,1.192894725496827988e+02,4.607751665335507063e+00
1.326800667891270891e+01,1.211329775425387254e+02,4.946941912973132460e+00
1.348225455433902731e+01,1.146632046032866015e+02,4.708580067518854051e+00
-4.281226820791273369e+00,1.617088927851374081e+02,-1.325279267695223595e+01
1.538765617378507500e+01,1.553229539245393198e+02,-8.909854071786895702e+00
9.663138348948232093e+00,1.583525786796569719e+02,-1.163827648665433934e+01
7.831116774537353997e+00,1.595545631129136837e+02,-1.235567258570235794e+01
6.084296394532049845e+00,1.587439794009697493e+02,-1.281559333039668758e+01
4.040663044130640813e+00,1.594995089350539388e+02,-1.338475268352838476e+01
1.531511203448769720e+01,1.575523493555964762e+02,-9.147233733006912004e+00
1.354050134593522969e+01,1.586309417214280870e+02,-1.011466685088245221e+01
1.158021157065220130e+01,1.595699299806044280e+02,-1.102170399315612492e+01
-6.688184177506766304e-01,1.631101917184849697e+02,-1.417275848496530877e+01
-2.881290727551220954e+00,1.633659671422645943e+02,-1.394002941356237457e+01
1.379310096671849450e+00,1.625196273393764841e+02,-1.401818427858873761e+01
3.490106060381524600e+00,1.617962945454782187e+02,-1.366833742893540204e+01
-7.243534398144430675e+00,1.596250707716226032e+02,-7.153147108393440590e+00
-7.057427862065040358e+00,1.614454166183497819e+02,-8.135858988086301480e+00
-6.469218845659321815e+00,1.616085195840546191e+02,-1.009666479026516761e+01
-5.642468271678058755e+00,1.625825572096886162e+02,-1.180130749849753968e+01
-7.395118463398833164e+00,1.603498403694596846e+02,-4.764066052214797509e+00
-7.221170847898514822e+00,1.596366959721135572e+02,-2.887832218660300043e+00
-6.752707917198234711e+00,1.591314787634211996e+02,-8.128481349041258852e-01
-5.988690385974563490e+00,1.588758438608723793e+02,1.169922044122873928e+00
-4.804877006561524055e+00,1.581495847164777047e+02,3.307713217549322238e+00
-3.302181727775881814e+00,1.574838903963714074e+02,5.379123932693362420e+00
-1.488325721680998193e+00,1.567322257702822697e+02,7.090643287954536689e+00
6.608870896010143881e-01,1.559671646039456334e+02,7.667494650746233376e+00
1.476577624876874495e+00,1.536816717427380468e+02,7.729911803832022699e+00
2.257085702797931859e+00,1.511854299734673646e+02,7.727307899471171027e+00
5.882109598131746608e+00,1.454539855133101014e+02,6.790271453222779030e+00
5.335912261926512912e+00,1.475892719493035941e+02,6.894449724364786647e+00
4.375501624888860519e+00,1.498832604670037085e+02,7.096180254188478642e+00
9.022999420375697355e+00,1.377804460940684521e+02,6.068496210447207773e+00
9.798435191224946550e+00,1.357121647239126503e+02,5.946114708047495867e+00
7.827178909735742707e+00,1.423752442748383658e+02,6.229090324504561238e+00
7.784426703170501227e+00,1.445603091031194651e+02,6.183313016843467125e+00
8.710589022627036826e+00,1.403610037166211839e+02,6.050599850822223402e+00
-1.948681811325789326e+00,8.027971121486854145e+01,-1.122704130273442402e+01
4.264463377607743411e-01,7.926270219510548998e+01,-1.099027657739931918e+01
1.093193830268706179e+01,8.623236886728052752e+01,-6.918901299730269017e+00
9.733788885803342339e+00,8.464909327648389592e+01,-7.724284679132384923e+00
1.463288591195626864e+01,9.294843579480306062e+01,-2.771332479969304430e+00
1.406995179973664811e+01,9.104387640704115370e+01,-3.644271051896991409e+00
1.346637888726919918e+01,8.935316985901508247e+01,-4.447862577981778642e+00
1.279155406552902363e+01,8.770489172919972987e+01,-5.261349421855189945e+00
1.230292467905874254e+01,8.571599594609658368e+01,-5.746616071625558320e+00
8.246401896997340941e+00,8.146809482104863775e+01,-8.603887952828065622e+00
9.784682093773316325e+00,8.258597628334490537e+01,-7.725378603840335145e+00
4.579844041755539941e+00,8.044307582276731239e+01,-1.003850249906398595e+01
6.625290329532951716e+00,7.981248294200796067e+01,-9.368030414234894465e+00
2.607547275330839298e+00,7.866522133546716589e+01,-1.061529705161049009e+01
1.530146694504480109e+01,9.454050907062124054e+01,-1.442324844392048888e-01
1.514703881674354946e+01,9.646494922775202951e+01,1.077770561106228264e+00
1.466101280742128310e+01,9.811870404435576631e+01,2.370131038822939740e+00
1.398149498001694369e+01,9.987106891111501739e+01,3.549509017663674992e+00
1.447237946628220584e+01,1.063452467508379016e+02,3.627469475250037600e+00
1.378180321979229817e+01,1.039186270626332345e+02,4.076876898115783021e+00
1.319177032788524784e+01,1.015853188495528343e+02,4.453588067241648574e+00
1.505554137964773531e+01,9.245035021944440246e+01,-1.311310529864302410e+00
1.433613492927942090e+01,1.089305494415130227e+02,3.898213077273894545e+00
1.403277302491312639e+01,1.110055345101468731e+02,4.213275728193575098e+00
1.320731866207215788e+01,1.124509069174706042e+02,4.882958944282031588e+00
6.136841580720615141e+00,9.543453490219287971e+01,8.214899360728900035e+00
5.009590430571003061e+00,9.334793017915522739e+01,8.688967249997880060e+00
8.772736731754669393e+00,1.007248564898476957e+02,7.016547016451085028e+00
9.475994094361855247e+00,1.028213684486113806e+02,6.673735752005946154e+00
8.184560401859277690e+00,9.851865671067476171e+01,7.340061578068297621e+00
1.011252312371106044e+01,1.050104126779301907e+02,6.374288105220927036e+00
7.858645328048294409e+00,9.627868460632947745e+01,7.531444070641843069e+00
-4.428005603986531646e+00,8.535222869885518548e+01,7.145141206939817913e+00
-3.101767448316216758e+00,8.572707630025689696e+01,8.570248909576640983e+00
-1.520858025924034962e+00,8.589384815469296086e+01,9.583043546176206462e+00
1.143934878830782154e+00,8.836667272535510165e+01,9.941562311528684859e+00
4.358441218848270182e-01,8.630459699612323732e+01,1.000371618038861321e+01
-6.872028516753213800e+00,8.124547306631950505e+01,3.397560912919158405e+00
-7.784748731079436546e+00,8.022125811726479583e+01,1.425955248265466935e+00
-5.799406565630703447e+00,8.177841291584233829e+01,5.389829412743004866e+00
-4.531007997893581773e+00,8.191981638575096270e+01,7.259011776436795849e+00
-3.740948967267325287e+00,8.355682197655279708e+01,8.087722359472268252e+00
-8.576137263681431477e+00,8.018415891619179092e+01,-5.499666310627508992e-01
-9.226072596238836354e+00,7.922952042737703948e+01,-2.393017628076620440e+00
-9.670193527224952845e+00,7.911670300055554605e+01,-4.825119526392438019e+00
-9.572472135097136459e+00,7.920553426876051617e+01,-6.880034673583720561e+00
-8.858448050792745221e+00,7.927243565764517541e+01,-8.992207114137869439e+00
-7.402667303284255595e+00,7.844158973919101641e+01,-1.059598466249201110e+01
-5.641333590653028196e+00,7.736483848958313558e+01,-1.115301953847270688e+01
-3.850695406109664987e+00,7.888631266543353604e+01,-1.127268701019253072e+01
2.797126086928702904e+00,8.967919157723235912e+01,9.496922596279198103e+00
4.705822652174584064e+00,9.076914016075824065e+01,8.877101387073178529e+00
1.168380625139540641e+01,1.293716274949059652e+02,5.567154013560386971e+00
1.142431348893343568e+01,1.316238698181201414e+02,5.602746778940533190e+00
1.258940615537352237e+01,1.272909450403393237e+02,5.182212231888177811e+00
1.252490447077123825e+01,1.187265633201946287e+02,5.371097544756233688e+00
1.223344966350050278e+01,1.163530653335851497e+02,5.463993540907006619e+00
1.205224540143550271e+01,1.139829102061002573e+02,5.560068674277067302e+00
1.196847429878341984e+01,1.116410177484546722e+02,5.651030961883485304e+00
1.145722922134900479e+01,1.093986388343257659e+02,5.869459230189498555e+00
1.074962613009508594e+01,1.071984711095757064e+02,6.139941693797005939e+00
1.163977181733041988e+01,1.353829757496746424e+02,5.445800901164517427e+00
1.235985073102097687e+01,1.334787957379694774e+02,5.251584333076712241e+00
1.824593656831099153e+01,1.526770942797055852e+02,-6.674153121759389684e+00
1.781829783674241341e+01,1.545580965944114951e+02,-7.250623491656756237e+00
1.684220696465320799e+01,1.561256885372619649e+02,-8.115675489162065048e+00
2.034597737746887702e+01,1.494020048860417091e+02,-3.628358109456572222e+00
1.938257641661035535e+01,1.521598088386588188e+02,-5.478824691845930239e+00
2.030648832995753850e+01,1.516949036258645549e+02,-4.210581806276247896e+00
2.088641527323607505e+01,1.486727696915522188e+02,-1.688943407920930451e+00
1.685854480693767599e+01,1.357952249532028191e+02,3.174473726102422511e+00
1.583705745650522800e+01,1.335709379688403544e+02,3.828616660347274880e+00
1.783914047964056593e+01,1.380141674150836479e+02,2.443534547194877060e+00
1.876508796822499647e+01,1.403046072710974101e+02,1.645339165714892804e+00
1.481395333548480941e+01,1.313640257768480808e+02,4.325700386725554125e+00
1.942371495072364240e+01,1.426132055322122767e+02,9.539738437521512182e-01
1.361340816047889568e+01,1.293601558584114741e+02,4.831622843454072225e+00
1.992899697681361459e+01,1.452131666695402998e+02,5.535228775817921942e-01
2.021095965370754755e+01,1.475363629303584219e+02,4.115090485046875024e-01
-4.614184917143218101e+00,1.640814471456549768e+02,-1.299277319385885932e+01
9.604183036659991402e+00,1.607671448062141906e+02,-1.186654623239082795e+01
7.440803487495876389e+00,1.618224590171422221e+02,-1.264614922680181053e+01
5.642762784617403327e+00,1.608927026097569524e+02,-1.310130143156588645e+01
1.683510949570784732e+01,1.586360626996997212e+02,-8.391706407331508188e+00
1.525166046490573990e+01,1.599412483821734270e+02,-9.406413263166928829e+00
1.348481524136869147e+01,1.609494375416529408e+02,-1.033459707312108122e+01
1.136020232122617912e+01,1.619670649757372303e+02,-1.130431279462774441e+01
-1.440226980198511697e+00,1.651341875666875012e+02,-1.423465969335679659e+01
8.363566306358265479e-01,1.647457242700327527e+02,-1.417825726712409207e+01
-3.373514276615763308e+00,1.656800151127475260e+02,-1.379364065656928062e+01
2.950812150925662181e+00,1.640724264316059759e+02,-1.386890412375134218e+01
5.183866490019260809e+00,1.630416495524876268e+02,-1.336133752962411769e+01
-7.353195383651796035e+00,1.616435423012494255e+02,-6.294471188068387235e+00
-7.262432814327393515e+00,1.639494583168856252e+02,-6.860865404992669170e+00
-6.810416647551820191e+00,1.634178805766935056e+02,-8.882196033885046305e+00
-6.073830244842827852e+00,1.644854499877665717e+02,-1.079393733588521265e+01
-7.302543088007737992e+00,1.619557593336140542e+02,-3.353736600759894770e+00
-7.388842669502197147e+00,1.629875803692401348e+02,-4.966753983882888690e+00
-6.923581635654333155e+00,1.611419534013431019e+02,-1.506556404171746522e+00
-6.293061163822787130e+00,1.613734971832618612e+02,3.839723060664042009e-01
-5.189518708954449444e+00,1.605026839035496380e+02,2.584144635471481877e+00
-3.781101761595207389e+00,1.597441659244776133e+02,4.699447183184652488e+00
-2.164452406084754976e+00,1.591277204179770024e+02,6.418529956433189909e+00
-3.954085535971127996e-01,1.585912601223084835e+02,7.483162410706469814e+00
1.544697874844065844e+00,1.581354297188015039e+02,7.635566045868582563e+00
2.803069780759936513e+00,1.563729275134464558e+02,7.300481948784018016e+00
3.428914791870305123e+00,1.543715290989790390e+02,7.183492309809036414e+00
3.693923816442996610e+00,1.523033106957305733e+02,7.177391327164595936e+00
7.673022622668355552e+00,1.468319771864402412e+02,6.158300417143347971e+00
6.571893420534443919e+00,1.490764129954712871e+02,6.402662527051717234e+00
5.559786559587987398e+00,1.513507762757610067e+02,6.636062128118361159e+00
1.095407775541996642e+01,1.373336583374902773e+02,5.545844742834596275e+00
1.017538807312591587e+01,1.392872237636298394e+02,5.674500578046028920e+00
9.495179759337071701e+00,1.427939508350528968e+02,5.699189062382689741e+00
9.668579610480239950e+00,1.450294943935646188e+02,5.601586308079216536e+00
1.067539188061549993e+01,1.412588827522060910e+02,5.454359826875659678e+00
-1.562007427997276210e+00,7.815530341461693808e+01,-1.122525467323909076e+01
7.139687095321480825e-01,7.681881066488516296e+01,-1.106360045424930227e+01
1.125952984676306201e+01,8.397450018253417170e+01,-6.672955303653660408e+00
1.465232509658522631e+01,9.040395759231552120e+01,-2.351505229681707831e+00
1.414198225154551025e+01,8.841958588616657266e+01,-3.239924912738397111e+00
1.358903831645282523e+01,8.681814321865863349e+01,-4.177067369031203015e+00
1.328741238538560054e+01,8.476278105825177533e+01,-4.530899803105352674e+00
1.245786150890642396e+01,8.324156827926083224e+01,-5.548681602916598621e+00
8.531479801863831369e+00,7.890783741754856351e+01,-8.539642995440031470e+00
9.967765353811730122e+00,8.031664827801566275e+01,-7.646277728367927295e+00
1.132665119493683292e+01,8.169653147569177065e+01,-6.641053743808464915e+00
4.846763877627809691e+00,7.812252514169848894e+01,-1.002638575658223630e+01
6.969577548801844102e+00,7.744230717529872265e+01,-9.288803025697013993e+00
3.008025574773697031e+00,7.639166955734251019e+01,-1.062559191206479525e+01
1.495237846627978584e+01,9.201453915098741732e+01,3.837165654253933411e-01
1.473987375000282540e+01,9.403730962333294485e+01,1.587955553210643966e+00
1.423573402217829198e+01,9.588738142260854147e+01,2.773161794023473625e+00
1.347491426884393562e+01,9.765924789383994664e+01,3.854366023000305397e+00
1.261242936188540753e+01,9.935409051335371089e+01,4.764925915577973292e+00
1.341255546136047982e+01,1.076122241332110718e+02,4.627890526327190557e+00
1.298927008879200962e+01,1.055197690768025751e+02,4.822885577722817452e+00
1.236841352094518776e+01,1.033228511510250200e+02,5.146255563802184518e+00
1.182198848859338014e+01,1.011333483055062743e+02,5.463213499383090976e+00
1.488694257406812937e+01,8.992944196698178416e+01,-7.804803846943286771e-01
1.292505556021784230e+01,1.097982570116254095e+02,5.082754513288620934e+00
7.191458933951357935e+00,9.391713195813224502e+01,7.854211087963008708e+00
6.373489362871517017e+00,9.174617322546345122e+01,8.239180772711669931e+00
1.045434236716353738e+01,1.010438474285069930e+02,6.237592907762365968e+00
9.830345060341549868e+00,9.904591526285635439e+01,6.582805771814896900e+00
1.101351552098450881e+01,1.031178521562593318e+02,5.938891338223699634e+00
9.492722845827730183e+00,9.694381944419332342e+01,6.755621726145047745e+00
1.159532776370370399e+01,1.052760702222766156e+02,5.692269467532620197e+00
9.032072020444404714e+00,9.466923360154910938e+01,7.008841671169321330e+00
-2.159463710442135920e+00,8.375238886985680153e+01,9.352466496298752929e+00
-3.554903801946567299e-01,8.403774388243331828e+01,1.007398729884087452e+01
2.645415275542680966e+00,8.681769625423126513e+01,9.617244761200248959e+00
1.675234226963626227e+00,8.467169982360363178e+01,9.869524503790556125e+00
-7.152297119573204576e+00,7.904830983576530912e+01,2.903839894383535736e+00
-6.249793397829201069e+00,7.950671573336211395e+01,4.676586118094101074e+00
-8.448193205598398592e+00,7.818629361163397107e+01,-3.662699728380758302e-02
-7.733263357227277091e+00,7.734721590093334953e+01,1.746048206559130733e+00
-5.131649986460312007e+00,7.990850055074619718e+01,6.539587335383242994e+00
-3.662288388172608933e+00,7.992185598977388850e+01,8.412047887828778769e+00
-2.829291059570267386e+00,8.159467874880076010e+01,9.046342813130046068e+00
-9.027995053624282562e+00,7.675645354600133885e+01,-1.595734331515562765e+00
-9.552299143375375223e+00,7.736873682533496321e+01,-3.544767215282960571e+00
-9.806498175446403565e+00,7.659292858544812077e+01,-5.581119877349002500e+00
-9.493355346607733836e+00,7.714368892408447209e+01,-7.705038707463032210e+00
-8.510803428243457702e+00,7.721353165405639629e+01,-9.664998617115948321e+00
-7.274911635201812388e+00,7.572085515845893156e+01,-1.073533216116646472e+01
-5.294147722534159328e+00,7.503365778976845490e+01,-1.119763404763084225e+01
-3.575302667107894905e+00,7.669718791414214820e+01,-1.128138238111663938e+01
4.038685296676323588e+00,8.848453954015565159e+01,9.133629467937517177e+00
5.937160274006505034e+00,8.903721202141312574e+01,8.465626905220801746e+00
1.308663908721553781e+01,1.313811224624235194e+02,5.063067209269972224e+00
1.216851162121934848e+01,1.075344082748896000e+02,5.484701070052391714e+00
1.272858736316202766e+01,1.374394222995046562e+02,5.036550343026449994e+00
1.349202340286100288e+01,1.354927515475311850e+02,4.844482438989356154e+00
1.417246040461060019e+01,1.334909906676485889e+02,4.636435224418054446e+00
1.931717373742093358e+01,1.542751692247192636e+02,-5.856639179800790629e+00
1.894968491518022802e+01,1.559748752874456557e+02,-6.464747881934894025e+00
1.805868320828561480e+01,1.572821272928996166e+02,-7.384849021376538758e+00
2.101448203668797277e+01,1.511165688162889751e+02,-2.661288650747668960e+00
2.032752937334347365e+01,1.540190851578467459e+02,-4.640243797735971398e+00
2.114719345773383807e+01,1.534549384010177278e+02,-3.144154676891493416e+00
2.024046751410568135e+01,1.497447630572218600e+02,6.134156230565315226e-01
2.109920279026143675e+01,1.507458680183968340e+02,-9.043588148392598391e-01
1.619074737933713948e+01,1.379189950200074293e+02,3.619839192083186497e+00
1.523715217840853597e+01,1.356829063114117844e+02,4.171615017727941854e+00
1.704934176959896064e+01,1.400915464228493477e+02,3.026864927145920703e+00
1.781897636678759866e+01,1.422684153458744447e+02,2.545340283240530077e+00
1.853086214065818993e+01,1.443008240108323150e+02,2.065569178033461295e+00
1.872115627006054694e+01,1.465201555423395234e+02,2.018209254992171520e+00
1.880095219377775706e+01,1.487812403572270625e+02,2.020888567501598398e+00
-5.100469807574814496e+00,1.661741633653779502e+02,-1.240354788980443956e+01
9.230828508995443826e+00,1.630736390929049833e+02,-1.216432212837661098e+01
7.048244364061369893e+00,1.640351836340639125e+02,-1.291413853495655673e+01
1.824737771723410873e+01,1.595541546430955293e+02,-7.505956328605780215e+00
1.686299024455954765e+01,1.609502418174013485e+02,-8.614159486748976136e+00
1.535538315902078210e+01,1.623283061167112464e+02,-9.591728264852427799e+00
1.307337796886522163e+01,1.631856485962167653e+02,-1.071214073060892602e+01
1.102804858017421807e+01,1.643285613419780589e+02,-1.162205053808200894e+01
5.119611915966615356e-02,1.667785261945130628e+02,-1.432860729389573251e+01
-2.084305365911820473e+00,1.673223120195188187e+02,-1.418759018165702734e+01
2.480985276939561501e+00,1.664686034269880679e+02,-1.407425895273245331e+01
-3.881133950379968667e+00,1.679711686766181060e+02,-1.355093905891289552e+01
4.709015460929656172e+00,1.651415229753944516e+02,-1.357863011770674078e+01
-6.863196022869915147e+00,1.655447458333626400e+02,-8.552047910083699023e+00
-7.277259325822709179e+00,1.664921293727395835e+02,-6.685462994735996034e+00
-7.365566245092431075e+00,1.653336438541247446e+02,-5.143101515182209482e+00
-6.227732803616763846e+00,1.668589028921484214e+02,-1.034882097264639000e+01
-7.302058520007157938e+00,1.643556703137005570e+02,-3.436896327878557145e+00
-6.951000674043186223e+00,1.632216716835909551e+02,-1.655711121029632693e+00
-5.440367591937114611e+00,1.628362357963232796e+02,2.055588607595979056e+00
-6.379355377540449012e+00,1.639250188124960061e+02,6.738406557606069214e-02
-4.148157310669995823e+00,1.620347696078960098e+02,4.151233267704707686e+00
-2.607635745643896552e+00,1.614311713729898656e+02,5.943621305974303937e+00
-8.492029970881835865e-01,1.609877399008157397e+02,7.305581845853177825e+00
1.227786387905028143e+00,1.603761873454860165e+02,7.702650196228052693e+00
3.631623974383868081e+00,1.586173928033290110e+02,7.088649946745675834e+00
4.868995060183340051e+00,1.560440589648508194e+02,6.739297098857182533e+00
5.714843250399646912e+00,1.535868146208272549e+02,6.538295650201323639e+00
8.618432063290029532e+00,1.489341098224970210e+02,5.740283964468350320e+00
9.799989684377994337e+00,1.470326486717350463e+02,5.479796620483497804e+00
7.375297274639709855e+00,1.511683719679730586e+02,6.054982271636824009e+00
1.185418640229615939e+01,1.393471066909618514e+02,5.205150024454203717e+00
1.128111696914011297e+01,1.435576655067736453e+02,5.216211158514568069e+00
1.154389138083653776e+01,1.458833446752139764e+02,5.053154945938601372e+00
1.245911597622349731e+01,1.415036712987737246e+02,4.959261133595161297e+00
-1.449282625184372009e+00,7.611868814053781307e+01,-1.125359799698807350e+01
-8.486282637667077466e-01,7.423668409753798869e+01,-1.130440697843804898e+01
1.316591551978619989e+00,7.445325677938851072e+01,-1.105892202795936186e+01
1.458293650418807275e+01,8.780916604407340742e+01,-1.832452800281918037e+00
1.416020019056173140e+01,8.579954201256258273e+01,-2.890247639370270960e+00
1.389851076565861732e+01,8.362679325131692565e+01,-3.354061763484832426e+00
1.331482583409000142e+01,8.222057568819931817e+01,-4.395459054992965520e+00
1.243597330446077187e+01,8.074174045139348266e+01,-5.571987671123997288e+00
1.018051555380989370e+01,7.790424002978232920e+01,-7.557865805638083856e+00
8.877494522708836655e+00,7.631613810658653563e+01,-8.374048642646343410e+00
1.146678421707886031e+01,7.932695492546015714e+01,-6.548498561267972917e+00
5.222598071596841862e+00,7.587362053013433183e+01,-9.977268659545838858e+00
7.331991078040859477e+00,7.511250162546755860e+01,-9.190507738512959435e+00
3.555366214506747724e+00,7.408835869017674725e+01,-1.055467213852732300e+01
1.462580728866182511e+01,8.966144666674436792e+01,9.967192391645953720e-01
1.435276745273004551e+01,9.167665575818443813e+01,2.106770806276292873e+00
1.379496421463081290e+01,9.358084438555020768e+01,3.192529593259108012e+00
1.305937541106532862e+01,9.541984910891441984e+01,4.150747782008672004e+00
1.217399238754406632e+01,9.717286578142726228e+01,4.986673355931504403e+00
1.125252525368187051e+01,9.888055940441475400e+01,5.751928048892420264e+00
1.464542765127763957e+01,8.753686391290857216e+01,-1.540098762115045261e-01
8.262501896521191824e+00,9.239135327954970478e+01,7.437300110977133727e+00
7.434389778940587057e+00,9.031839499829024476e+01,7.864720967977699928e+00
1.081684584217942557e+01,9.661218929158319213e+01,5.992178840933876316e+00
1.050493592909348628e+01,9.457213930025072557e+01,6.208804429812841974e+00
9.847189637544644825e+00,9.264257541961464426e+01,6.646123868077612684e+00
-1.114755040307128020e+00,8.174772056421235789e+01,9.978924648209865467e+00
9.511229582645661651e-01,8.222922856815307568e+01,1.007921554416348897e+01
4.882375725544782163e+00,8.682106528099951959e+01,8.894464335474271621e+00
3.716520024260728583e+00,8.498314504078055620e+01,9.326924920436766797e+00
2.731176668852814515e+00,8.302711625795427608e+01,9.678032120693517371e+00
-6.801081354777712917e+00,7.708417758328552338e+01,3.684809391425996061e+00
-5.745838380334205908e+00,7.767898946417395223e+01,5.634395310275027491e+00
-8.349469593846116311e+00,7.568283615014215115e+01,3.890769848446327117e-01
-7.445217809547877152e+00,7.494682300473286318e+01,2.472676485867052243e+00
-4.520246364442890297e+00,7.810165734387699388e+01,7.442631915012552390e+00
-2.976240170961642395e+00,7.791700544556088914e+01,9.129828182374053469e+00
-1.674726574375942967e+00,7.941855500591915984e+01,9.848978667219558503e+00
-9.592323348228715574e+00,7.518552940221903214e+01,-3.494634109009529865e+00
-9.052969410648495696e+00,7.440314377969269799e+01,-1.457918787039772290e+00
-9.910454841283243610e+00,7.379764490575071534e+01,-5.171569490764653665e+00
-9.725551600866193525e+00,7.476005336855200767e+01,-7.074617021115572335e+00
-9.019911157639702637e+00,7.536227837098360283e+01,-9.045791653556912948e+00
-8.217203119768383246e+00,7.372626717118626516e+01,-1.017474766869753999e+01
-6.659158422387434939e+00,7.323413255246741471e+01,-1.094078363858666236e+01
-4.715414869709242396e+00,7.269867287714751569e+01,-1.129070073578861511e+01
-3.187211404450600583e+00,7.444973132545899830e+01,-1.133380302114204596e+01
6.779213029813865532e+00,8.706188991831612611e+01,8.188964952562123756e+00
8.086817422891519058e+00,8.867627745918704818e+01,7.653020198376960792e+00
1.361567668490216221e+01,1.396978423401794203e+02,4.698304813254601697e+00
1.449284464837659314e+01,1.377399812028361339e+02,4.431056148072578083e+00
2.021243051776379929e+01,1.563813646554689285e+02,-5.153847366335085667e+00
1.936866125265064298e+01,1.580269237374090778e+02,-6.326182674081692880e+00
2.140449489370635661e+01,1.529160211191340295e+02,-1.275410202196844978e+00
2.112999753780229995e+01,1.556710559888494743e+02,-3.651081549914400703e+00
2.154959823753932113e+01,1.550047931175785436e+02,-1.705857380155623160e+00
1.889897377733520401e+01,1.511468450856599475e+02,2.010583866540840425e+00
2.032075857246979211e+01,1.521636893467787957e+02,6.835796749369305036e-01
1.536465283304981178e+01,1.400380808584689305e+02,3.987371734183095207e+00
1.613128684831908899e+01,1.424189182278254009e+02,3.568761727872398204e+00
1.696254525456812345e+01,1.448899932989840522e+02,3.160739614104675965e+00
1.723158180624474056e+01,1.475154152503869796e+02,3.061369633665024459e+00
1.737760721547307341e+01,1.500369198076772932e+02,2.964858039685121405e+00
-5.363712779954308729e+00,1.685498968642721138e+02,-1.200635776297891155e+01
8.921482023108890047e+00,1.654493034391340416e+02,-1.242702553681095701e+01
6.747676675151591752e+00,1.661336691655025390e+02,-1.313933551008616618e+01
1.948183591869990394e+01,1.602825409713506701e+02,-6.534001578063508120e+00
