1.211742010757615162e+01,3.131834920925149390e+02,-1.758388855204032097e+01
1.027042629647849026e+01,3.133971753063572123e+02,-1.826888016483928823e+01
8.465807922698445509e+00,3.137757883759426818e+02,-1.887285989898055050e+01
7.026644331829515977e+00,3.122555436639940467e+02,-1.926453432228140628e+01
1.861295268354366073e+01,3.122175086785787244e+02,-1.492890527043596194e+01
1.711441920075984058e+01,3.134782624721938191e+02,-1.548374917663909400e+01
3.419774155416007488e+00,3.115827792365004143e+02,-2.001386696509655394e+01
4.977373958412385946e+00,3.129662025099653988e+02,-1.974635238704036055e+01
1.755560886918418362e+01,3.026974821535018805e+02,8.682243040822186231e+00
2.358092903403910157e+01,3.037503706360359388e+02,5.356979037027485901e+00
2.604122718665678349e+01,3.036312833908956463e+02,4.331244527152193768e+00
2.131954786291225901e+01,3.040561402888488374e+02,6.406550171124990811e+00
3.018953191624135002e+01,3.046196000211439241e+02,1.036085825631744228e+00
2.925393920151013560e+01,3.054773853149456500e+02,2.435285801197551336e+00
2.752867160085833120e+01,3.052985719455585922e+02,3.737247677875075169e+00
3.077549741036386877e+01,3.051372754398200868e+02,-5.815956561789334955e-01
3.080556685010213869e+01,3.046679041460768076e+02,-2.794562005911075175e+00
1.937581453098900397e+01,3.042109449088103474e+02,7.646584195333389289e+00
3.038358849662506600e+01,3.045448007902217000e+02,-4.841700042734146336e+00
-1.075235630521569874e+01,3.122092088646434718e+02,2.869504214180778945e+00
-1.012585374567925101e+01,3.128715646295059969e+02,4.738851954101619413e+00
-2.095626412428089225e+00,3.106578000620276612e+02,1.533650904713135787e+01
-7.420489801752751191e+00,3.128349332806849361e+02,9.718285504392383700e+00
-6.194405350739032201e+00,3.127863670094670852e+02,1.157304973222346689e+01
-4.909031249962993115e+00,3.124993121680581680e+02,1.318138680721312994e+01
-3.504005820491210343e+00,3.123060220488807772e+02,1.453422822840548179e+01
-9.365521719216758356e+00,3.135684340668328787e+02,6.533479767796961823e+00
-8.473627977362980346e+00,3.138241505675844110e+02,8.185244843408099769e+00
-7.361501287299745400e-01,3.111947415737779465e+02,1.623956727257564125e+01
1.009657770505839380e+00,3.106808112914272897e+02,1.675983847847783181e+01
3.112536643682432214e+00,3.103796064248773519e+02,1.684023205263656564e+01
5.272172967439601621e+00,3.100235890577184819e+02,1.642734727235318815e+01
1.391185797823238879e+01,3.038767898239254350e+02,1.150527995712235452e+01
1.243233489142255266e+01,3.054875771395876427e+02,1.264155044983957055e+01
1.615651756353620883e+01,3.043442051186385697e+02,1.002485358657781944e+01
7.686882078204000379e+00,3.093216323846416458e+02,1.551881653123493265e+01
1.112264751962077014e+01,3.071726243068040390e+02,1.365228494776752655e+01
9.982302594891251601e+00,3.091721282775731652e+02,1.457273244792489209e+01
-1.210909649342215744e+01,3.127139503564401366e+02,-1.186611669274009984e+01
-1.165606956351723511e+01,3.128374726009834603e+02,-1.413810720934600340e+01
-8.175262600900509824e+00,3.127161756501993750e+02,-1.898031416197869703e+01
-9.765741785739123770e+00,3.131289455813009113e+02,-1.783555451246255075e+01
-1.094544426770141854e+01,3.131135660956577453e+02,-1.615567514128079551e+01
-1.270083394070638860e+01,3.146321978479346058e+02,-5.734792643150285585e+00
-1.284013521476617825e+01,3.148640379779396881e+02,-8.049857915478838777e+00
-1.237188727796660714e+01,3.141599629605237851e+02,-3.342259433835693017e+00
-1.275597407592931631e+01,3.147376695876247368e+02,-1.058195706255500568e+01
-1.243695666195640115e+01,3.157681536225871923e+02,-1.787827609990699784e+00
-1.192184356955795010e+01,3.152189336666058352e+02,2.180512214223426781e-01
-1.134449566152693478e+01,3.137388233289702271e+02,1.564043409135820184e+00
-4.235802647435775725e+00,3.118257750357752229e+02,-2.027839100191073385e+01
-6.237318771915965954e+00,3.124423358833299744e+02,-1.984727259438645319e+01
2.915524357518597753e+01,3.056749253093699963e+02,-7.905423900524738201e+00
3.010294073723338215e+01,3.063098074684830294e+02,-6.022731727403765944e+00
2.819955307384657317e+01,3.087887074826647904e+02,-9.589756187014927491e+00
2.933580056181506279e+01,3.076863049522914366e+02,-7.873162638177973349e+00
2.668385835093630476e+01,3.089998561864632052e+02,-1.104379456866013243e+01
2.494962329084069097e+01,3.099679552398159785e+02,-1.224134902278660775e+01
2.342479014282980643e+01,3.113202215189274966e+02,-1.299887660525382671e+01
2.185140722623498277e+01,3.127131594291479360e+02,-1.362775820687693340e+01
1.296205753846493280e+00,3.121945218846834109e+02,-2.032047961447977968e+01
-8.243428903722360701e-01,3.128014102537746339e+02,-2.051526441364052289e+01
-2.992357263729559236e+00,3.135666337468571214e+02,-2.055238212292431399e+01
2.006095033497547320e+01,3.139476592467005958e+02,-1.428168788445441351e+01
1.365324630490465552e+01,3.144533641293741084e+02,-1.693509774673168522e+01
1.554069246424771222e+01,3.144944049747399504e+02,-1.612167454234304387e+01
1.160714597730054720e+01,3.153038802631465956e+02,-1.777451710729178558e+01
9.692887024141896291e+00,3.158463373149012341e+02,-1.847832356699484535e+01
7.875326405222040194e+00,3.163389450409103461e+02,-1.905033512274269469e+01
6.439704219450845812e+00,3.146477762087092742e+02,-1.942688742810014446e+01
1.854038838740939354e+01,3.151093581037400213e+02,-1.484305523153147988e+01
1.681413661721251174e+01,3.160073026386831430e+02,-1.552809233863513327e+01
2.884847525659665735e+00,3.138863815180667416e+02,-2.014092361799151831e+01
4.401470226674291553e+00,3.154858258337857251e+02,-1.989954042108007570e+01
1.808331990225282482e+01,3.051646076485374124e+02,8.752412748531241959e+00
2.286597459379089514e+01,3.057633442337806855e+02,5.886862045888847206e+00
2.507628815128107647e+01,3.055865866295728210e+02,4.941473233431679546e+00
2.055400169590569703e+01,3.061537672889107853e+02,7.198361224034670158e+00
3.035773915232249465e+01,3.067118759710721179e+02,1.077066173189905385e+00
2.832898529546187660e+01,3.074504592038053943e+02,3.333287404817838251e+00
2.966055230716818869e+01,3.081137675736711117e+02,2.235178016926738565e+00
2.646678382942431540e+01,3.071269539259501471e+02,4.433710940741093509e+00
3.083657427834828013e+01,3.076879337639530831e+02,-3.813041477123988443e-01
3.091562337445964204e+01,3.065828170398939392e+02,-2.003014305359329228e+00
3.071304337295703135e+01,3.070128998040476063e+02,-3.962697554877308903e+00
-1.084779966317410071e+01,3.147068050092881322e+02,3.556034585326187880e+00
-1.014711432127137414e+01,3.152145109841178510e+02,5.400542569778622237e+00
-1.941139804437511884e+00,3.131424046837224182e+02,1.592398074350830939e+01
-6.819802400529169972e+00,3.147098982342092768e+02,1.096454196540696557e+01
-7.951724429748196599e+00,3.152371063088038454e+02,9.359385584863503027e+00
-5.639454841593931178e+00,3.147312062402359061e+02,1.261627431673969113e+01
-4.378201744633543058e+00,3.145878261078792093e+02,1.409963170043738501e+01
-3.050427867029188889e+00,3.146969003677216961e+02,1.538250410786099565e+01
-9.167759539289477289e+00,3.158702881225993906e+02,7.509698192458813537e+00
-9.077420517846235271e-02,3.132035097852870535e+02,1.694506638763982664e+01
1.968219068281115369e+00,3.126733569744550323e+02,1.733092304313095156e+01
4.260673177601603356e+00,3.123550646598965841e+02,1.718245855193123361e+01
6.846529608172176040e+00,3.113403171120530715e+02,1.630358897057951140e+01
1.480598001263213348e+01,3.059293482173722509e+02,1.130506848051959423e+01
1.349326876036398914e+01,3.075090480366195038e+02,1.245456719931098633e+01
1.690292359652677945e+01,3.065983524006944094e+02,9.914733720981757870e+00
9.094067919174552372e+00,3.111910496354390148e+02,1.539952508855046176e+01
1.214740582198903951e+01,3.091621290053522557e+02,1.352271296293707792e+01
1.119038025103998280e+01,3.112179263726955014e+02,1.443674123388996122e+01
-1.248112935648657640e+01,3.148592801341704899e+02,-1.316833129219684473e+01
-1.191423361641079737e+01,3.150538526469537715e+02,-1.538243076022902756e+01
-7.576108647345677127e+00,3.144706536122879470e+02,-1.969914396499785880e+01
-9.414360484785220251e+00,3.150255401090630585e+02,-1.880172187146575880e+01
-1.089461003186659127e+01,3.151383463347100360e+02,-1.732430269609895390e+01
-1.330774972129461275e+01,3.171336826314563950e+02,-6.536324814328168031e+00
-1.291976793655862821e+01,3.164799632438174513e+02,-4.116600904617769174e+00
-1.330799125840621855e+01,3.168219128834369940e+02,-9.281022865184979764e+00
-1.320136465102336842e+01,3.167020560244143894e+02,-1.190798469987528563e+01
-1.291155134423866002e+01,3.180507015184629154e+02,-1.966745340924035190e+00
-1.231241246491481434e+01,3.174217727603952426e+02,2.372245117279589977e-01
-1.155919207002045823e+01,3.162717235400401705e+02,2.179395136714674663e+00
-5.242007322918425416e+00,3.143583707176695725e+02,-2.037201910674343708e+01
3.021431263860336003e+01,3.084639388985776804e+02,-5.941952994303619562e+00
2.943231398777390950e+01,3.097524231636783156e+02,-7.809157105794156450e+00
2.860216076996277934e+01,3.112621753086046965e+02,-9.095538990374734567e+00
2.743496424166676206e+01,3.108887988515506891e+02,-1.040477117870864276e+01
2.603710136960933141e+01,3.111126537670599532e+02,-1.151025227093714420e+01
2.471860546596542463e+01,3.125180613391686393e+02,-1.228294009364458361e+01
2.327017719281576547e+01,3.138697218412168581e+02,-1.294432491238831062e+01
2.164147629899855474e+01,3.150580174705621630e+02,-1.357331529642897294e+01
7.279660365113613807e-01,3.145439027921892716e+02,-2.045669177566702501e+01
-1.444861743372143792e+00,3.152363965769475840e+02,-2.063291675684337179e+01
-3.645038827948724247e+00,3.159442060723071108e+02,-2.068262052826050024e+01
2.002831418299248867e+01,3.167724733487623894e+02,-1.415589221598747827e+01
1.297863568578532067e+01,3.169103668274536290e+02,-1.720324616575931032e+01
1.479933521593906676e+01,3.165377489572291552e+02,-1.640895151675431407e+01
1.103881905091708404e+01,3.175151971600287766e+02,-1.798290478673436610e+01
9.115475956810428215e+00,3.184651719613242449e+02,-1.866498273087222515e+01
5.807776791948072059e+00,3.170574655655230458e+02,-1.960654556141321336e+01
7.191871288121660655e+00,3.186650599457271369e+02,-1.926601167563433137e+01
1.818914561904445293e+01,3.176513893194786533e+02,-1.488543247380107459e+01
1.625190925618686322e+01,3.182520987923093116e+02,-1.573522580945962090e+01
2.221229718211702675e+00,3.162322270943586773e+02,-2.029600421618278006e+01
3.630486836258683070e+00,3.178279279975020586e+02,-2.008036339902417922e+01
1.897681402010596230e+01,3.073492367707036692e+02,8.482518030137271126e+00
2.451994936801557401e+01,3.079208023422161205e+02,5.409694682483632278e+00
2.233571762411236250e+01,3.075735305571242293e+02,6.364021846753757927e+00
2.083753497215758443e+01,3.085545257721899475e+02,7.399906689460522102e+00
3.049385947973030397e+01,3.092094740648561810e+02,9.756869789860047604e-01
2.856576308445744417e+01,3.098312106797234264e+02,3.293155056278692427e+00
2.678993700271848866e+01,3.091270715589520250e+02,4.352271125781044248e+00
2.980537175541621764e+01,3.106863783667516827e+02,2.151528344068992737e+00
3.086393808871775946e+01,3.101108233586581946e+02,-5.800626130862838181e-01
3.094433196365503136e+01,3.087394115889408113e+02,-2.226380351131865609e+00
3.074234666878885491e+01,3.095182861531250182e+02,-4.065356096218692983e+00
-1.104438974191509715e+01,3.173331218382759289e+02,4.133893101405305970e+00
-1.013970964486736648e+01,3.171628875184526350e+02,6.076923538091250521e+00
-1.236465035265808865e+00,3.154437282331149390e+02,1.684850576816575085e+01
-7.338948641002616569e+00,3.167644262207675183e+02,1.063139271247678153e+01
-6.326812605638622244e+00,3.168424770027506838e+02,1.210390876819360528e+01
-8.425914045738466029e+00,3.174339985636729580e+02,9.162774971399244350e+00
-5.129395334049519306e+00,3.168189348906604437e+02,1.364100777081148408e+01
-3.933026477364620632e+00,3.169022384563758123e+02,1.500856908131754608e+01
-2.560115396747708161e+00,3.167199951260334956e+02,1.622867749066972465e+01
-9.486157644277341205e+00,3.183454079659792342e+02,7.677679567217978729e+00
6.961488575161070003e-01,3.151899462929013112e+02,1.764416249809335113e+01
2.740582118364500275e+00,3.147229971601333887e+02,1.782996713656166321e+01
6.270939409271008458e+00,3.132398091063869288e+02,1.692527844396002479e+01
4.910010824048921307e+00,3.147516409935612955e+02,1.765351883439916492e+01
8.442822744057373541e+00,3.132048197879464624e+02,1.615039986179947817e+01
1.564589763138599920e+01,3.080773158274051866e+02,1.112394008177341220e+01
1.435427954848861987e+01,3.095858861563712026e+02,1.228950298370983774e+01
1.767043335902955903e+01,3.087840432843444205e+02,9.750710191713778840e+00
1.057784967697518397e+01,3.132118306671196137e+02,1.516678047829742582e+01
1.312610057467752256e+01,3.111285200951519982e+02,1.334081347649339477e+01
1.286503728838475880e+01,3.132037092227615744e+02,1.392636806235515223e+01
-1.282783906846259470e+01,3.170283217892703078e+02,-1.458038300163282130e+01
-1.203387640950165860e+01,3.171489601879786164e+02,-1.667819491848712232e+01
-7.057914154376589977e+00,3.161109145788539081e+02,-2.020546392840486760e+01
-9.059173287583917045e+00,3.169604371975931372e+02,-1.959744725988215919e+01
-1.073674269262562575e+01,3.170854777880431357e+02,-1.836202771314002291e+01
-1.390774128239172569e+01,3.196646833471237414e+02,-6.118855387338726359e+00
-1.385549135096266582e+01,3.188944904125976336e+02,-8.389767128293783571e+00
-1.344089813811001477e+01,3.187682238215360258e+02,-4.152711640460950093e+00
-1.386889034910564078e+01,3.187400580771055161e+02,-1.082508055973463001e+01
-1.360134573624986842e+01,3.185848788412673684e+02,-1.334100413582143574e+01
-1.343770705271253973e+01,3.203989396086370789e+02,-1.962698638299741560e+00
-1.278269040047757699e+01,3.196472566307387524e+02,1.444927343761150951e-01
-1.196658021164694219e+01,3.186565496131778445e+02,2.274759300878713475e+00
-5.548762491307115852e+00,3.170063143907858603e+02,-2.062891228303501379e+01
3.028952312333319696e+01,3.107273166817164451e+02,-5.909567987007676493e+00
2.959855531909420279e+01,3.120706000548555039e+02,-7.476423573364854747e+00
2.867576543259087885e+01,3.136208965225066549e+02,-8.883273053442167111e+00
2.754964951458123323e+01,3.131402899940050588e+02,-1.022879406922334056e+01
2.619589671025187272e+01,3.131017200944767183e+02,-1.133775181508144669e+01
2.490370608992793677e+01,3.148399447075703961e+02,-1.206450442511243182e+01
2.350872353457134523e+01,3.161631914564629824e+02,-1.272190150109554452e+01
2.187022174219572435e+01,3.171580407841695433e+02,-1.336373866777762487e+01
3.350754259133736923e-02,3.170007619210749112e+02,-2.057811206001673554e+01
-2.116909219421700072e+00,3.176901099800001020e+02,-2.075780066705377180e+01
-4.131517467757817030e+00,3.185417279322711011e+02,-2.085262018678277229e+01
1.945722250940036702e+01,3.194113959634367461e+02,-1.428068843151208966e+01
2.127343785883658711e+01,3.191437558560202206e+02,-1.351927647647187314e+01
1.253331469430816014e+01,3.192553372130109324e+02,-1.738638299123010711e+01
1.439000262595752133e+01,3.187790296673328498e+02,-1.658661984865693739e+01
1.070473426941123307e+01,3.197089004391124831e+02,-1.813241561524125700e+01
8.177152138547228333e+00,3.208274727721407089e+02,-1.901284341893205010e+01
9.809127977433547585e+00,3.214812716515903048e+02,-1.848816146970659702e+01
5.021823169490403416e+00,3.193259888207160202e+02,-1.981436524367535412e+01
6.339311436318780579e+00,3.207838746384214801e+02,-1.952847100488565957e+01
1.759948345460481889e+01,3.200413422490813105e+02,-1.508854234036436992e+01
1.574577328189057823e+01,3.205911528513065036e+02,-1.595687717249597881e+01
1.558311073714094164e+00,3.186808248765186136e+02,-2.041768580357083351e+01
3.068488236445205075e+00,3.202909702583709759e+02,-2.021705852231627887e+01
1.951406635438951298e+01,3.098386926205393479e+02,8.567219125333849661e+00
2.300016283863624267e+01,3.096107865577021130e+02,6.302357170206505543e+00
2.503723684255606940e+01,3.102604547489008837e+02,5.310556023609024123e+00
2.149841304502359662e+01,3.108307867466959920e+02,7.399320140660620382e+00
3.054318519865159942e+01,3.116505286140069302e+02,8.176280667689752590e-01
2.708259016211673043e+01,3.113428881964506445e+02,4.317109667394333883e+00
2.873006332250770356e+01,3.123167103587193196e+02,3.230381634184595896e+00
2.989629159530500147e+01,3.131791534897671454e+02,2.042329773488745559e+00
3.081851260150233429e+01,3.126475402546736859e+02,-7.315496431024257618e-01
3.091849828442354919e+01,3.110988585500025465e+02,-2.282494053205937234e+00
3.071743887557477137e+01,3.119488361192720731e+02,-4.053166400074132980e+00
-1.063948705944108042e+01,3.192426688865666620e+02,5.870994788270195386e+00
-1.156865712438184346e+01,3.199536914364341555e+02,4.054050788311087672e+00
-3.277208244506653045e-01,3.175719706316438078e+02,1.781526150155752930e+01
-1.870919385038651406e+00,3.184890736292881002e+02,1.714865875154237074e+01
-7.361443026024915071e+00,3.188276285091393447e+02,1.112247895235327633e+01
-5.969154004436177274e+00,3.188421441461410950e+02,1.305033819551931629e+01
-8.654524176975371574e+00,3.196248830427714438e+02,9.435410865910625944e+00
-4.742722558828745605e+00,3.191018947643734691e+02,1.461501797071878173e+01
-3.377161950732499918e+00,3.189751981229343301e+02,1.604317919722143415e+01
-9.907830509840891864e+00,3.205362998763851010e+02,7.710253112045734269e+00
1.606914053253930774e+00,3.171433547729268980e+02,1.829301757899020231e+01
3.741706519778951190e+00,3.168321967413185689e+02,1.827919364617469000e+01
7.404765962184896466e+00,3.151428843436934244e+02,1.706519510491780522e+01
6.086155539571151962e+00,3.167161430311824120e+02,1.790055089803382771e+01
9.607894346563512045e+00,3.152076006642906236e+02,1.616217173775942229e+01
1.634246167680573691e+01,3.103045477155167191e+02,1.103856502170026488e+01
1.489355652880630387e+01,3.118606305088575255e+02,1.237416173790211360e+01
1.821119690286886339e+01,3.111866358894059204e+02,9.808296413343100539e+00
1.165572142074930184e+01,3.151377314161608751e+02,1.506722077001307980e+01
1.369033501988644730e+01,3.152224555091837033e+02,1.389778645689750647e+01
1.515337560823932961e+01,3.139196285428575379e+02,1.263474793128034435e+01
-1.308828528173239647e+01,3.192215553807042738e+02,-1.599630007304050849e+01
-1.201553661929358441e+01,3.191537676275229387e+02,-1.783399897545805501e+01
-7.584077334999847153e+00,3.182621362822111450e+02,-2.045827857326645471e+01
-9.290526763960997414e+00,3.191242595660152119e+02,-2.005400268291791832e+01
-1.070353091475021756e+01,3.190900524690050588e+02,-1.915818615098785571e+01
-1.448201677514543917e+01,3.210813443698190213e+02,-7.841414580501691489e+00
-1.463578208422222815e+01,3.222210368973039749e+02,-6.046448289434067647e+00
-1.403106998025282337e+01,3.211854590466166428e+02,-4.080177177488451434e+00
-1.455966580461108606e+01,3.208794523530713718e+02,-9.963219493655458336e+00
-1.441943136283134663e+01,3.206518708821359951e+02,-1.232587983881785476e+01
-1.398863727945706614e+01,3.203807716797443845e+02,-1.450682090881102226e+01
-1.406943544725299944e+01,3.227517988812859357e+02,-2.037322166448348071e+00
-1.331891496159960298e+01,3.219820023705716494e+02,8.212185956358553085e-02
-1.251524611703246137e+01,3.210837334734934529e+02,2.145481959700987318e+00
-6.155198983029549709e+00,3.194233605188811680e+02,-2.087158117554169223e+01
3.026503470914667560e+01,3.131582975598965390e+02,-5.762606075070152656e+00
2.958497870606015567e+01,3.144985369878766619e+02,-7.300812072886287751e+00
2.880181304775896933e+01,3.160280901711940942e+02,-8.511200927058325760e+00
2.769736588756336459e+01,3.153613812000972985e+02,-9.993832326345341244e+00
2.632101452046526902e+01,3.152010248884061525e+02,-1.119316153343652331e+01
2.498130935274093645e+01,3.173417213208289240e+02,-1.193714366370488733e+01
2.321207924555733371e+01,3.184807423275677820e+02,-1.276365282890719755e+01
-5.663305082583747208e-01,3.194189938613801587e+02,-2.069978748770635235e+01
-2.610703255189378069e+00,3.202507151645864951e+02,-2.091400085058742775e+01
-4.644407190686592912e+00,3.210153858723718940e+02,-2.109565983105602527e+01
1.896367050179895841e+01,3.219004887662737815e+02,-1.444326298705561840e+01
2.073673104002074297e+01,3.214078227209195120e+02,-1.369282838903848187e+01
2.258532417603191789e+01,3.207827536375980912e+02,-1.293688747881708423e+01
1.382771570214407575e+01,3.210561123806230626e+02,-1.683621803728942723e+01
1.188203983640090655e+01,3.216318643932385157e+02,-1.768990872749645860e+01
6.588456039074117143e+00,3.229455968177050522e+02,-1.953607803280323196e+01
8.406010888247067214e+00,3.233436982243245552e+02,-1.900903578070773392e+01
1.032521669558462918e+01,3.235646292222585316e+02,-1.835059305744238145e+01
4.649059477049036104e+00,3.218727966429257776e+02,-1.994770741371806366e+01
1.718505236112605417e+01,3.224706138765681658e+02,-1.525916646409496025e+01
1.540577784534141870e+01,3.228796920069981979e+02,-1.611388854262099812e+01
1.012487103075386585e+00,3.210974055350940262e+02,-2.057136027937559675e+01
2.550308853839055701e+00,3.226243400958409211e+02,-2.038247904484452988e+01
2.011316182153115051e+01,3.121671531827296349e+02,8.596539774839129677e+00
2.344759557174847941e+01,3.118126149541741370e+02,6.339126169116525489e+00
2.542468336716046906e+01,3.125716676122649460e+02,5.333552631531119914e+00
2.201092199329838195e+01,3.131992478165339548e+02,7.467424880120461239e+00
3.049255275395648823e+01,3.141443485514150780e+02,6.715040630649582454e-01
2.737323936209566000e+01,3.136574453172089534e+02,4.291228339727013008e+00
2.892626279207365769e+01,3.147744566674967928e+02,3.171364422958731666e+00
2.988663372091241399e+01,3.157276973848004218e+02,1.995465906259596522e+00
3.070723856730342050e+01,3.152573040472093453e+02,-8.972757672379430005e-01
3.082884815110469390e+01,3.135397305658003688e+02,-2.373324207310133716e+00
3.061949425380589673e+01,3.143542288177432056e+02,-4.038189129537840927e+00
-1.107850782612729290e+01,3.214882347155448770e+02,5.913314048327265482e+00
-1.211405718314290425e+01,3.223867837962922067e+02,4.047782926175045759e+00
6.720340081228233231e-01,3.194878009753309698e+02,1.864517996533197675e+01
-1.064347690607490904e+00,3.203289827923059647e+02,1.810654786584268550e+01
-2.632196342054953675e+00,3.208719134993804118e+02,1.715723113158469459e+01
-6.683827653660785018e+00,3.204850876789937502e+02,1.251950441177405082e+01
-7.919624229655937597e+00,3.210440015100015216e+02,1.099128854599143779e+01
-5.545621695470515533e+00,3.212131938069106809e+02,1.418367998897156212e+01
-9.148063856259625481e+00,3.218782268636338131e+02,9.438103202407546632e+00
-4.118318700522763720e+00,3.210491174970231896e+02,1.578797722963690831e+01
-1.034041376911500265e+01,3.227599540533381060e+02,7.837587904860356502e+00
2.788803225657822793e+00,3.190462322765186514e+02,1.885210247437441922e+01
5.038811158802673162e+00,3.187168745336255142e+02,1.865652427858134388e+01
8.615564960107718662e+00,3.170272636237469897e+02,1.713469577789985010e+01
7.461831331111739019e+00,3.185932533761022682e+02,1.808687142589843688e+01
1.079592451741599746e+01,3.172206244614210391e+02,1.609945601671097393e+01
1.679930453041838234e+01,3.125925474497044547e+02,1.115080190521496206e+01
1.873726580207633674e+01,3.135104920312568311e+02,9.907536748904476553e+00
1.265419879222427468e+01,3.172011991582236874e+02,1.504734628651749517e+01
1.446185924180441873e+01,3.171919825688912624e+02,1.387883146569890869e+01
1.585029008655152438e+01,3.159819969102136383e+02,1.261206513227784853e+01
1.726288706063652967e+01,3.147853083140787476e+02,1.128676349711918192e+01
-1.299124212942820122e+01,3.212477170162021594e+02,-1.760787491059957688e+01
-1.405791627780217823e+01,3.218387318233288852e+02,-1.604991280464872716e+01
-1.172784705310243680e+01,3.211769239834139853e+02,-1.903585757989043259e+01
-8.319380215544242674e+00,3.206491012418064201e+02,-2.074102729567482584e+01
-1.020339899271641571e+01,3.211851356691709043e+02,-2.013582859073559916e+01
-1.528169095550560996e+01,3.231649374656757345e+02,-8.591786157503577215e+00
-1.543629331787451520e+01,3.243288987051683989e+02,-6.242774980357921777e+00
-1.473147405272311516e+01,3.235331096334278982e+02,-4.026306899470682765e+00
-1.523436686861623457e+01,3.226753862336673819e+02,-1.125001950456470468e+01
-1.490413299450779050e+01,3.224427737098477564e+02,-1.392043909982098171e+01
-1.484155548246803846e+01,3.251495081890749361e+02,-2.058342599084539870e+00
-1.402326195162527256e+01,3.242402906782101581e+02,-1.293926132158276232e-01
-1.312639065427117657e+01,3.234860207235420830e+02,2.051613516466886722e+00
-6.772802305850746052e+00,3.215957338712356659e+02,-2.111731752003061047e+01
3.017479340865247650e+01,3.155887720782134238e+02,-5.630158113920515461e+00
2.962916661128610940e+01,3.170643382860551469e+02,-6.870299373791226571e+00
2.890775678085310574e+01,3.185045168707047765e+02,-8.123660104822874928e+00
2.794636958387695813e+01,3.176580732784606198e+02,-9.561085791473942663e+00
2.661183953077579645e+01,3.171814450484533836e+02,-1.088534709844611825e+01
2.581218679063817945e+01,3.193219178209874372e+02,-1.134812146328272320e+01
2.434607773062396063e+01,3.199542523718171196e+02,-1.216945970855169890e+01
-1.039887342484234978e+00,3.218978667197848154e+02,-2.086533475342650945e+01
-3.151824794322124035e+00,3.227590476822731489e+02,-2.114654405566147943e+01
-5.272584477962482197e+00,3.232794186437124608e+02,-2.136120244363030451e+01
2.027868655306838264e+01,3.237623830355765904e+02,-1.386030516392168010e+01
1.855923221429604553e+01,3.243859083086884993e+02,-1.461536356567455641e+01
2.206006180386316373e+01,3.230937461929107144e+02,-1.310401428852685513e+01
2.384639855488285320e+01,3.223699735982406764e+02,-1.233809217847135642e+01
1.367076597341190336e+01,3.232618307036826764e+02,-1.693395643573182952e+01
1.203648282318067686e+01,3.237902211624484607e+02,-1.767112354840378430e+01
7.460528324214010354e+00,3.254850194828869121e+02,-1.940168087718325296e+01
5.711368739118825033e+00,3.248129369426011408e+02,-1.983893837672702887e+01
4.062504095696226614e+00,3.240194102577012245e+02,-2.017040300105686157e+01
9.270197947456836118e+00,3.256292830937262579e+02,-1.881166549766717822e+01
1.116032533726468046e+01,3.257346825985000578e+02,-1.809093967015598992e+01
1.678032498409876894e+01,3.248220766841917566e+02,-1.546569676132628501e+01
1.494999009142881619e+01,3.251529531160759916e+02,-1.636162241507099679e+01
5.863415715608653045e-01,3.235661503608253042e+02,-2.074247792442798755e+01
2.251800205990434733e+00,3.250584495374096150e+02,-2.058366362749544010e+01
2.058869444719914554e+01,3.145331921150239509e+02,8.728868529337205473e+00
2.386135595345433558e+01,3.141582524403431762e+02,6.460306959742638355e+00
2.580599468830189380e+01,3.147565708049847899e+02,5.420086407671306006e+00
2.247734122479062080e+01,3.156270032212845535e+02,7.661590367643157151e+00
3.043088189775858154e+01,3.165097699365387598e+02,4.852172838527621934e-01
2.774658665835761440e+01,3.159483533046295634e+02,4.279540520165255657e+00
2.901589478227049312e+01,3.175447281793104821e+02,3.203296598376709881e+00
2.996981078299972978e+01,3.181469674004667922e+02,1.817869609398940156e+00
3.062759610986836378e+01,3.180430979430170737e+02,-1.314101957995035264e+00
3.069834979427582766e+01,3.161015027852367894e+02,-2.436525851298711132e+00
3.053978571707648371e+01,3.166422089051553712e+02,-3.995270284856360377e+00
-1.143149675976144408e+01,3.236674708351148411e+02,6.218812360484434976e+00
-1.239929018345878831e+01,3.244934907368840413e+02,4.603575749987953714e+00
-7.429776981524582880e-03,3.219306690201741503e+02,1.902369727799020893e+01
1.942701915784567746e+00,3.212338315034440939e+02,1.936960000210387989e+01
-1.783094440154513904e+00,3.228123279031857464e+02,1.828853895957149689e+01
-3.374030619470659076e+00,3.229309158943505054e+02,1.700133417174811257e+01
-7.028130624958009776e+00,3.224399574359572398e+02,1.262909196620603325e+01
-8.319619189772140544e+00,3.232258278107266278e+02,1.112123028172845807e+01
-6.133974366945210477e+00,3.234775922286166860e+02,1.409068468966370347e+01
-4.779623912849956469e+00,3.229810976972357821e+02,1.553231302147810311e+01
-9.578550653788852287e+00,3.240694913459390136e+02,9.591407926758165559e+00
-1.079278299375948791e+01,3.250410091691788921e+02,8.059499818672975380e+00
4.123895502206920582e+00,3.208035876962923112e+02,1.933796725327852073e+01
6.439995787169948471e+00,3.205022763312456959e+02,1.895913078948483133e+01
9.890541526565357344e+00,3.188715176574021939e+02,1.713963103012218880e+01
8.753794151457839234e+00,3.204056663291086124e+02,1.822548980547750830e+01
1.206261771035104857e+01,3.192588634502847640e+02,1.602697067405341613e+01
1.915304005789852226e+01,3.158290858150191980e+02,1.011211196594035755e+01
1.401875248147150899e+01,3.191225804370205879e+02,1.472511538771982487e+01
1.608216582906641179e+01,3.182602949445181366e+02,1.302650288249776622e+01
1.769214462016344669e+01,3.171111528766638230e+02,1.154769899161317426e+01
-1.386488105345199529e+01,3.234910777531637223e+02,-1.787466150180154045e+01
-1.266697199028260457e+01,3.232451016986042305e+02,-1.916043506618524361e+01
-1.486794755747473573e+01,3.239016980100095680e+02,-1.634573486049194457e+01
-1.114474732357371067e+01,3.231559740539254335e+02,-2.024010567268936711e+01
-9.255420536961992184e+00,3.228972150408829975e+02,-2.096393981117455496e+01
-1.607042122181496779e+01,3.247284436053304262e+02,-1.035316319860635303e+01
-1.620574678609000330e+01,3.254596528475639161e+02,-8.180224087770852748e+00
-1.633206920417410402e+01,3.264685844350633488e+02,-6.092743704408576377e+00
-1.551754173809808890e+01,3.256655238948959550e+02,-4.030043452196537146e+00
-1.589164527719117359e+01,3.243792738310138475e+02,-1.265258741990857061e+01
-1.561294571949838428e+01,3.243825715448572282e+02,-1.471952124538836415e+01
-1.582537875480602452e+01,3.276688411893899229e+02,-2.085166646289508208e+00
-1.490327424206611795e+01,3.266796531844553328e+02,-4.012929214014775425e-01
-1.406595326781723543e+01,3.258436196798769515e+02,1.333679959722530839e+00
-1.327623512040293008e+01,3.254416838060526516e+02,3.120073375478341404e+00
-7.444937938348516582e+00,3.234979108920861108e+02,-2.135909565698062806e+01
3.023429343761517885e+01,3.182427185515949759e+02,-5.052710090501705054e+00
2.976678932512868414e+01,3.194183803785220448e+02,-6.340067202580712546e+00
2.909878369175635271e+01,3.207155967584992595e+02,-7.685649115501178130e+00
2.805792367289132017e+01,3.203751571844071577e+02,-9.260495907170138707e+00
2.709468302014147412e+01,3.191705324209351602e+02,-1.036086187900332334e+01
2.674451871305382156e+01,3.212424927487467130e+02,-1.057774211101616402e+01
2.540958361614968908e+01,3.217358987054327599e+02,-1.151051627726860715e+01
-1.493539327994653831e+00,3.241930255128464751e+02,-2.107589904419319282e+01
-3.833139951027760617e+00,3.251865037500907647e+02,-2.146803156720443440e+01
-6.262754803466577869e+00,3.252479076015015380e+02,-2.168439783310282110e+01
2.160771453158352529e+01,3.254916306258135705e+02,-1.327650591784390599e+01
1.996324522284056968e+01,3.262459127876004459e+02,-1.398047693763692223e+01
1.805453758031488576e+01,3.268042625591569958e+02,-1.483061449892124983e+01
2.335000867617861786e+01,3.246448352462948606e+02,-1.253541917373229353e+01
2.494220654325033593e+01,3.241527106366086173e+02,-1.173315971351598819e+01
1.313899498279110389e+01,3.255672383465339408e+02,-1.721717370899028765e+01
5.981635653238072337e+00,3.270180726036763872e+02,-1.991086388945413432e+01
4.149956027659754909e+00,3.263531252974999006e+02,-2.030410583719529427e+01
8.122308267022503969e+00,3.278004380117445180e+02,-1.930884361591640186e+01
1.017800340650069302e+01,3.277083751575667065e+02,-1.854976328120504547e+01
1.226451647233585618e+01,3.275688341613236503e+02,-1.768571865318716618e+01
1.620141269528465955e+01,3.271050803291439024e+02,-1.575922313603513203e+01
1.429862034708605734e+01,3.273407300488158853e+02,-1.671371263969894017e+01
3.251558317621174865e-01,3.259342639458484427e+02,-2.097572441996737780e+01
2.476826433867699961e+00,3.272874659752945945e+02,-2.072721105150759513e+01
2.096336169085969914e+01,3.169154016184285751e+02,9.038189986955103450e+00
2.440822350198800450e+01,3.164961320777683795e+02,6.630728664256594129e+00
2.624036806704452829e+01,3.167588279675813965e+02,5.484090690969878779e+00
2.282964720192285313e+01,3.179100219135754060e+02,8.008481516613983331e+00
3.045924837667052998e+01,3.186376075850998859e+02,2.863366904866779805e-01
2.770019131524236400e+01,3.182413743153479118e+02,4.641201504064838446e+00
2.862065042436586282e+01,3.200454128902053981e+02,4.037195987853237966e+00
2.959695644823978000e+01,3.200897302828209376e+02,2.678999492941102289e+00
3.027084580090240706e+01,3.205120440017499277e+02,1.204652027475958675e+00
3.059891452427564218e+01,3.186499287734122845e+02,-3.078464088810733301e+00
3.064136423990407820e+01,3.206456094931916141e+02,-2.290667510051889622e+00
3.059072712020542895e+01,3.205088800800374429e+02,-6.009038805607360700e-01
-1.188509458921657824e+01,3.258951306014193960e+02,6.501733863714548534e+00
-1.287394800984657195e+01,3.267736302353434894e+02,4.977026074096443153e+00
1.428327634220977416e+00,3.234657929257543856e+02,1.992131612053833578e+01
-3.738533397784067347e-01,3.241549734132744334e+02,1.949178077841497725e+01
3.421094849953078665e+00,3.229241325182115929e+02,2.001498500684124338e+01
-2.962700688478207667e+00,3.249123168866373135e+02,1.788421215393782404e+01
-1.764604674242775673e+00,3.251116242279922517e+02,1.892334128112474900e+01
-4.264425820532721900e+00,3.249818578889893388e+02,1.663640107158221326e+01
-7.423129838500756250e+00,3.245491903611859925e+02,1.276204535660644979e+01
-8.756523150500868269e+00,3.253623589979425788e+02,1.127738619910405760e+01
-6.566841803465194971e+00,3.258940209285889296e+02,1.429848271590162767e+01
-5.428351576538659629e+00,3.250019798200562491e+02,1.537343584325117263e+01
-1.005932083510970187e+01,3.262618531932928363e+02,9.785148997888200029e+00
-1.129741727379496297e+01,3.272904264074060166e+02,8.268154024969362581e+00
5.613350706530923162e+00,3.225131064760684012e+02,1.980340377911218752e+01
7.835566057266305506e+00,3.222724561268939851e+02,1.926666661932100055e+01
1.082095834673506829e+01,3.208058932794879752e+02,1.728630768430338094e+01
9.887438909146908372e+00,3.223120475499687814e+02,1.843342616421421098e+01
1.265591484135713074e+01,3.213577515358512073e+02,1.638826651569308979e+01
1.420803904820596131e+01,3.211179090218031433e+02,1.526709303046197874e+01
1.952269429880914231e+01,3.181636001414709654e+02,1.046812730595661378e+01
1.580482762245787853e+01,3.202392642331324737e+02,1.382327526684764507e+01
1.781943466351174266e+01,3.193716497841334672e+02,1.207943936137121455e+01
-1.382535621536294457e+01,3.253818107521009324e+02,-1.929561761156054445e+01
-1.499152709410338957e+01,3.256502811521241938e+02,-1.796595855431422706e+01
-1.229554320816214386e+01,3.250738224244854564e+02,-2.033691778886441170e+01
-1.597160015490294427e+01,3.259846564964215077e+02,-1.631956014800931598e+01
-1.055120782943379254e+01,3.249232217844781871e+02,-2.112055958161465696e+01
-8.655497725381451346e+00,3.251596597020894706e+02,-2.158926081099832572e+01
-1.691769712570658157e+01,3.264104471721410619e+02,-1.198797086158583625e+01
-1.713702523642973574e+01,3.269462935935689529e+02,-9.771780582561177653e+00
-1.733860329183016802e+01,3.277959444323440721e+02,-7.622660607658758636e+00
-1.639340506948110487e+01,3.275715098000350736e+02,-4.179425014169623864e+00
-1.743173526261784900e+01,3.288578567165087634e+02,-5.512612936762593563e+00
-1.660691349263811389e+01,3.262012665208761746e+02,-1.422644856231806898e+01
-1.706802165846124808e+01,3.295017267491581379e+02,-3.199678467507851565e+00
-1.572546666718267261e+01,3.289163856822311800e+02,-1.379048811289749210e-01
-1.677158047621946935e+01,3.302798344446947567e+02,-1.182169703773070069e+00
-1.474872847403753440e+01,3.279904186873357048e+02,1.465925893896951493e+00
-1.387798912779715010e+01,3.274741428170694917e+02,3.230697028665872494e+00
3.038983954942864329e+01,3.205752044395128451e+02,-4.253651108261351510e+00
2.991481993139950646e+01,3.215234490532920972e+02,-5.850170373935611678e+00
2.952878586903602809e+01,3.228970993304593549e+02,-6.772829424233691498e+00
2.863617439766767347e+01,3.226014223017775180e+02,-8.415795385662818262e+00
2.759645130766693910e+01,3.228719121601758957e+02,-9.738844247846827784e+00
2.634908212023037777e+01,3.235988684497158943e+02,-1.084457297236849627e+01
-1.767967416484452770e+00,3.261565659589634834e+02,-2.132158324674549021e+01
-3.342521631246768266e+00,3.275523886731566563e+02,-2.176764939547570066e+01
-5.423552798682749199e+00,3.271295075087000441e+02,-2.197279099303921157e+01
-7.765916712720127180e+00,3.269443889498514864e+02,-2.207736252900258478e+01
2.290599673030629901e+01,3.267771543723590639e+02,-1.275864640500719815e+01
2.156256235309280100e+01,3.281109142723792047e+02,-1.332351573309733794e+01
1.957327126594007183e+01,3.283242481172238172e+02,-1.416129528045684083e+01
1.743292976954906948e+01,3.291268555767489374e+02,-1.516301872209902513e+01
2.451917294715315165e+01,3.264613810819971036e+02,-1.199093849096686881e+01
2.601548770389933907e+01,3.260406972180129515e+02,-1.107401544186325282e+01
6.283225115723439558e+00,3.289103139842628707e+02,-1.996632819301191830e+01
4.258654610276494168e+00,3.287652654237065235e+02,-2.053411153647601850e+01
7.549892352994334033e+00,3.303206504303016686e+02,-1.967642454039253153e+01
9.362551296083324814e+00,3.297521832543727669e+02,-1.898006313277429058e+01
1.136567091298394416e+01,3.295080901873691914e+02,-1.814776067447963470e+01
1.343876011788449887e+01,3.293287884833569024e+02,-1.718758655579894423e+01
1.547263112169380861e+01,3.292003730178591923e+02,-1.616486234021218138e+01
7.659890948506244968e-01,3.280886766545261253e+02,-2.115956416696599263e+01
-1.133933971619967451e+00,3.280878167128975065e+02,-2.150221845582200331e+01
2.232849391094305247e+00,3.295301065465696411e+02,-2.110086216872525711e+01
2.158608266264309350e+01,3.191893990336189404e+02,9.278005131432337294e+00
2.446473476782216494e+01,3.187540600687912047e+02,7.194634314640779849e+00
2.609845936607098338e+01,3.186930720822554122e+02,6.020591062303992658e+00
2.355888180033173285e+01,3.205238544771220859e+02,8.360620680091642498e+00
2.727784319012539527e+01,3.203787305943266119e+02,5.536278456893342081e+00
2.826888793338673622e+01,3.222229519552632837e+02,5.028528708078738418e+00
2.931676758368575975e+01,3.222589111089923790e+02,3.553330353027376987e+00
3.008737410996877770e+01,3.224638512417309357e+02,2.096618007555662189e+00
3.057033860759383970e+01,3.226056799466932716e+02,5.236132867210017139e-01
3.075073617725865915e+01,3.226909243149420945e+02,-1.150323254496242953e+00
3.065624963566460792e+01,3.226929245247715698e+02,-2.927384793669261853e+00
-1.239729469793803673e+01,3.281567735722310317e+02,6.765570463598578499e+00
-1.355424382946796413e+01,3.288624734989233502e+02,5.015722323781915293e+00
8.264497399885044615e-01,3.256996292067882450e+02,2.047004144352445110e+01
2.788452545656866732e+00,3.250693036560298879e+02,2.070312349865565693e+01
-9.105899809541142531e-01,3.265850931660113474e+02,1.990898038155148697e+01
4.886368658229514494e+00,3.245561587763669422e+02,2.062962214306494957e+01
-3.874801874584591133e+00,3.268548208147120704e+02,1.760033255808821195e+01
-2.610870177886795318e+00,3.272326548634321171e+02,1.889355879164668295e+01
-5.377659406436350764e+00,3.270521168354025576e+02,1.605295700724923336e+01
-7.866923621850048676e+00,3.267123905291285837e+02,1.296412700067890000e+01
-9.224680356005251269e+00,3.275279927312514019e+02,1.151905206313563212e+01
-6.838870600096925045e+00,3.279623871443939152e+02,1.468497389989965995e+01
-1.054485196790938062e+01,3.283476672400605594e+02,9.993386081478320193e+00
-1.192836385376858743e+01,3.296552635728672840e+02,8.520682891055116670e+00
7.120800811766343941e+00,3.243159955141673549e+02,2.027610896291571407e+01
9.112173693663294216e+00,3.240965173074917516e+02,1.960624966178048112e+01
1.180608523210685235e+01,3.229044024846766661e+02,1.755126337309036444e+01
1.080169632931404067e+01,3.243374684972123418e+02,1.882937351516244462e+01
1.376287754458235391e+01,3.233097073345075501e+02,1.643062230694181380e+01
1.550905884850459415e+01,3.225497334295198470e+02,1.486071554377110715e+01
2.005360046696648624e+01,3.201619356333629298e+02,1.067909278709635146e+01
1.712778313338191083e+01,3.216939373993243976e+02,1.336919342325427351e+01
1.870561849087772543e+01,3.212001563349376738e+02,1.201068811497884781e+01
-1.351998211227953561e+01,3.269371872601708446e+02,-2.055810907780517027e+01
-1.513400442136276070e+01,3.275073501811659753e+02,-1.951480303834614460e+01
-1.625416821628550679e+01,3.275482335505942046e+02,-1.787700366043617350e+01
-1.184342095876581880e+01,3.268339060589872815e+02,-2.134054914240391554e+01
-1.713302447226374170e+01,3.277553471178849804e+02,-1.590631431839778998e+01
-9.996062418925134807e+00,3.268923466967760305e+02,-2.187757391514458050e+01
-1.771547075629837309e+01,3.280196871451377092e+02,-1.373318617829630739e+01
-1.807336405585215289e+01,3.284364223106620102e+02,-1.150320649505073334e+01
-1.838657157357442884e+01,3.291054005722598959e+02,-9.296966943276629536e+00
-1.859027569852401029e+01,3.300327405657517374e+02,-7.117594713424637121e+00
-1.845440348251054274e+01,3.308849426825116780e+02,-4.822603312608293891e+00
-1.809750436964600340e+01,3.316241405876889985e+02,-2.628710590350351595e+00
-1.549305301586718997e+01,3.300302228408148721e+02,1.774031597784983205e+00
-1.645689765397469273e+01,3.312759172624004123e+02,8.875838558492432639e-01
-1.763815581920107434e+01,3.323455447674360812e+02,-3.835763604643034341e-01
-1.459364689289736816e+01,3.295097620163760439e+02,3.282196769720826524e+00
3.035069108017796680e+01,3.230047821346985302e+02,-4.544625103251178189e+00
3.011682876243867213e+01,3.246783806423903798e+02,-5.438848249688021497e+00
2.935940165766805876e+01,3.247418678157638965e+02,-7.222237685543859698e+00
2.840978418672261796e+01,3.247526037936780767e+02,-8.771650215677709639e+00
2.724667871375845607e+01,3.253503522367512346e+02,-1.006690770433800708e+01
-4.704148803886823771e+00,3.292463610776858900e+02,-2.238182021409306799e+01
-2.444405916635560061e+00,3.296337889031310624e+02,-2.206731405090476983e+01
-6.976220141836051880e+00,3.288624771736093635e+02,-2.256926452939865158e+01
-9.257833452760223736e+00,3.286337719971733122e+02,-2.258239960451930983e+01
2.366735337856221122e+01,3.285887131924548044e+02,-1.243513866355021946e+01
2.095558794745653586e+01,3.301937255317186555e+02,-1.361399290363115711e+01
2.273913508665265226e+01,3.303546311435194980e+02,-1.289131699191347025e+01
1.909110781630715792e+01,3.302021181181801239e+02,-1.440623364173677601e+01
1.636752711348118083e+01,3.312333837760046436e+02,-1.578452667010613553e+01
1.811654022090134220e+01,3.317595998313445307e+02,-1.493239060193988621e+01
2.541665379211667641e+01,3.283674134151158910e+02,-1.151441169739103998e+01
2.689832099234286034e+01,3.279535588170185747e+02,-1.042680880441423596e+01
5.526231886164168827e+00,3.308216412903619812e+02,-2.042384440167336379e+01
3.687859357712568453e+00,3.310746755523853153e+02,-2.100691882511989661e+01
8.681397780369138673e+00,3.321025018940250106e+02,-1.944342487501569394e+01
6.776517520879167478e+00,3.325030515040743921e+02,-2.023807371834368496e+01
1.054630390178209609e+01,3.315739235832713234e+02,-1.865233172559237573e+01
1.252065169841222314e+01,3.313056064477414111e+02,-1.773957401904934272e+01
1.450820727346541616e+01,3.311821473414489674e+02,-1.674150201215677214e+01
-4.574121907523931441e-02,3.300430163327621926e+02,-2.169629611966149696e+01
1.783189131566814467e+00,3.315436747588141202e+02,-2.162880043417248999e+01
2.187286061689837879e+01,3.213670427833376948e+02,9.833407919013097853e+00
2.557039827359244555e+01,3.206274132894706099e+02,6.987923090079220856e+00
2.515967194657764594e+01,3.224638430018083000e+02,7.957175318788358709e+00
2.351609789944529894e+01,3.227744408885997132e+02,9.258419630612479523e+00
2.686750316418829243e+01,3.223736465405164608e+02,6.538536681042387499e+00
2.799072293789083687e+01,3.242243418896662206e+02,6.088022548933622602e+00
2.910547711066408283e+01,3.243313577723417893e+02,4.536791622184409789e+00
2.995939702425312134e+01,3.244853227379846885e+02,3.050468952605797313e+00
3.056598058202712309e+01,3.246469312019873996e+02,1.580538714913245713e+00
3.084924833699187730e+01,3.247076176048776688e+02,-6.924865694691106910e-02
3.086799705305747921e+01,3.247638948482301657e+02,-1.824885586954223982e+00
3.065449088907553232e+01,3.249468333624536172e+02,-3.516743992569900001e+00
-1.316542946236586431e+01,3.301564344801655579e+02,6.711518162946390476e+00
-1.447771558683882631e+01,3.309093130276246484e+02,4.782400623986063692e+00
2.129012909062112158e+00,3.271524651888332755e+02,2.137628869672499832e+01
1.643040315905182069e-01,3.279180050029574431e+02,2.095826454132259187e+01
4.253849234013955538e+00,3.266060347273191269e+02,2.146291105154926981e+01
-1.704957700294016831e+00,3.287208409501764663e+02,2.011949320478754544e+01
6.430669742615009454e+00,3.261455016455730629e+02,2.117983928867708698e+01
-4.555807621973372079e+00,3.286432893035877214e+02,1.749040753137114734e+01
-3.392959730630082049e+00,3.294012950188930517e+02,1.895290875730302105e+01
-5.931323837712284330e+00,3.293208288248107465e+02,1.622374089451045620e+01
-8.266085701138649711e+00,3.287711529324362800e+02,1.326842617356396659e+01
-9.657207134039367702e+00,3.295962892608299057e+02,1.183530642529922261e+01
-7.377650278233772951e+00,3.300712498705883604e+02,1.485127153428538804e+01
-1.094896642574883572e+01,3.302983800081613595e+02,1.037788492746335578e+01
-1.293357273115873340e+01,3.317765569095135447e+02,8.259274564952420405e+00
-1.187019399200221415e+01,3.319301599670409928e+02,9.991798177735063291e+00
8.983764079762636356e+00,3.259647183706934470e+02,2.053006948955405164e+01
1.106358520925795119e+01,3.262339870989865176e+02,1.962139205777828010e+01
1.249389201041918795e+01,3.248716295569760746e+02,1.801362784197033307e+01
1.548733859449640704e+01,3.246077226248246461e+02,1.581487301056051820e+01
1.408553544991336537e+01,3.254325745300835138e+02,1.721800915203277782e+01
1.712354592032784240e+01,3.238999279259401192e+02,1.430058673891778653e+01
2.029005595712283139e+01,3.223588320217161822e+02,1.129620346174601764e+01
1.862617630651823220e+01,3.232310590891673883e+02,1.288489449515918750e+01
-1.452530685214162531e+01,3.286869652333240310e+02,-2.104134736061610056e+01
-1.309463873557240277e+01,3.286682826840462894e+02,-2.181179946433417172e+01
-1.666468364920183376e+01,3.292209484398048289e+02,-1.930585535427672994e+01
-1.586143944746243051e+01,3.297107996164949100e+02,-2.083075624147750204e+01
-1.763491366098264734e+01,3.293000987745123211e+02,-1.755061989750964813e+01
-1.133597716850272263e+01,3.286402118319506371e+02,-2.231243252964259227e+01
-1.840185054633957407e+01,3.295547405298046897e+02,-1.552973422860327446e+01
-1.893751168457674794e+01,3.298934242825355341e+02,-1.333035015112034216e+01
-1.938824568376344359e+01,3.304306763136085010e+02,-1.112150488856354968e+01
-1.974764110764590441e+01,3.311720065973592000e+02,-8.903965506548047415e+00
-1.987281314156939516e+01,3.320356434996161852e+02,-6.558945016206394030e+00
-1.972330166619281044e+01,3.329267854859720046e+02,-4.315103287178089886e+00
-1.898331089485918710e+01,3.334684491253208307e+02,-1.761439271129688677e+00
-1.570285172229137061e+01,3.318356526103931401e+02,3.205544983984054852e+00
-1.707267311548480393e+01,3.331048658433235232e+02,1.883716675512118854e+00
-1.845369119034808136e+01,3.342211274162468726e+02,5.381766965435872407e-01
3.055020472570481616e+01,3.267374240015914211e+02,-4.304895374933153107e+00
