-8.496365375619120641e+00,4.928466927274178033e+01,-7.804753402253998829e+00
-7.624340304689894765e+00,4.782497472038778596e+01,-9.234750511274071982e+00
-6.147485371385528197e+00,4.885986289579420827e+01,-1.035759102575738666e+01
-4.514248693401555101e+00,5.001032736842648774e+01,-1.105192894902688749e+01
-2.889402782480487986e+00,4.847828896230578266e+01,-1.165277435815272611e+01
-1.067505025133414165e+00,4.937060364943494051e+01,-1.191928440639446762e+01
7.652124963573214700e-01,4.835477094647586682e+01,-1.212711804588604991e+01
2.665699229032838957e+00,4.972037801156255910e+01,-1.194498116169734203e+01
5.942483766410248336e+00,4.926610321400096382e+01,-1.150027369125677978e+01
4.354314741632151708e+00,4.841723676536605581e+01,-1.186729138143675755e+01
-5.322433263579625873e+00,1.933071706031028612e+02,-1.267122023405318032e+01
1.333024618317165277e+01,1.868844306543226139e+02,-1.127304539046497212e+01
1.204148178162421345e+01,1.884310389528925498e+02,-1.191613825122522030e+01
1.797655186400746175e+01,1.762037893805879776e+02,2.191063002254509229e+00
2.032414984329057006e+01,1.784158748802758510e+02,4.412296297863349537e-01
2.144693224943841869e+01,1.790398471855133948e+02,-8.792026639492291906e-01
2.210035722564089156e+01,1.801358828143287383e+02,-2.385251198073888190e+00
1.867593323198255462e+01,1.781713740328609674e+02,1.747075411054879623e+00
2.217461870371403165e+01,1.817867018366345064e+02,-3.887899775777796663e+00
2.061566342381104278e+01,1.864438884322566423e+02,-6.661094546798949523e+00
1.921467326508911810e+01,1.869799042822712636e+02,-7.810379046448474583e+00
1.772288122520137676e+01,1.875533601877090177e+02,-8.885666260788070758e+00
2.163032486417478140e+01,1.855207714671790882e+02,-5.533201413878487074e+00
2.227175309581934926e+01,1.845835618611137079e+02,-3.931377186295897275e+00
1.483671024125072790e+01,1.876488278258830178e+02,-1.056939104937305274e+01
1.628005743349081058e+01,1.882913979904768667e+02,-9.813514993595845226e+00
6.576577929800642153e+00,1.909037291174845450e+02,-1.375139444590377025e+01
4.460641627121006536e+00,1.913428535998337736e+02,-1.417957043415299268e+01
2.820083092198899521e-02,1.920230123250825613e+02,-1.439486294636287766e+01
2.001716641782223860e+00,1.926061737819844666e+02,-1.445594603204983741e+01
-1.670778660596523801e+00,1.940550895752695624e+02,-1.422877548578026108e+01
-3.628144139748080477e+00,1.937736416195459981e+02,-1.365025284906864655e+01
1.056959560505423212e+01,1.899620890024152118e+02,-1.254721749728810209e+01
8.851458946102617631e+00,1.914231635751907561e+02,-1.315471843447585343e+01
-5.197857321382912232e+00,1.884646764992687622e+02,-7.601057465114990919e-01
-4.059690078342327979e+00,1.889693142792636991e+02,1.031452678708319581e+00
-3.022704656026689918e+00,1.876367939193316374e+02,2.328776761279414131e+00
-5.973382730565731435e+00,1.898111061538162971e+02,-2.311638348141286770e+00
-6.711225089557103729e+00,1.908680601155619456e+02,-4.248506451684761487e+00
-7.173252927448572791e+00,1.913248235820499872e+02,-6.211129905940424578e+00
-7.342579095569320202e+00,1.924423695746903604e+02,-8.163443928836159103e+00
-7.080967475525142163e+00,1.937925199958322651e+02,-1.014264197343459273e+01
-6.328017445799389407e+00,1.952276342904469288e+02,-1.176198137608423622e+01
1.289336814218245308e+00,1.856789315409509982e+02,5.536008877228141500e+00
3.304509677282908342e+00,1.862185865159006255e+02,5.759235961173544638e+00
4.891768117274978067e+00,1.846550433401270084e+02,5.488865401518523868e+00
5.644466059934416080e+00,1.825467634712257734e+02,5.258742721444377821e+00
-1.526915195049696194e+00,1.875464738593985317e+02,3.716639293892967544e+00
1.833071038829530153e-01,1.872330149181184993e+02,4.911148828003661038e+00
1.078645170681829768e+01,1.816240823670430018e+02,4.457068087604739048e+00
9.028931083032148308e+00,1.825560752111880447e+02,4.669714831671171851e+00
7.192027388277438149e+00,1.838105479719536390e+02,4.929976658590248917e+00
1.678547463926079786e+01,1.783759562900736455e+02,2.837875899260382084e+00
1.567794827083346831e+01,1.804522858252613844e+02,3.336715956092746183e+00
1.283900888710741128e+01,1.822300357993170223e+02,4.136482351107019895e+00
1.485142907682455871e+01,1.825114996227792403e+02,3.618007742857571429e+00
7.814039263852578188e+00,4.830743214034498578e+01,-1.107463919935764807e+01
9.653969647164458934e+00,4.722158593395795378e+01,-1.044370316592511472e+01
1.017350223292851297e+01,5.949063421192397527e+01,6.744671808962550585e+00
1.086401220113259569e+01,5.751649885272036045e+01,6.038161287719248094e+00
1.330311194199214242e+01,5.480675311298068664e+01,1.759589644397074437e+00
1.254832990254806191e+01,5.585067712983823185e+01,3.647275332960276728e+00
1.135699977341687372e+01,5.547032279597169691e+01,5.528279697820039473e+00
1.376727604936468197e+01,5.356639388701319149e+01,-2.665867856944714731e-02
1.391994607617198199e+01,5.264557048303117881e+01,-1.891957889532335457e+00
1.379789463400356908e+01,5.154024469480327753e+01,-3.611019079020849176e+00
1.358795520879129981e+01,4.980252553715899921e+01,-4.914710686924024685e+00
1.262773818019303462e+01,4.868946630729101344e+01,-7.500599157194301370e+00
1.202244652790504631e+01,4.744298447380015205e+01,-8.589514312991354927e+00
1.339045742341505729e+01,4.803280911260776520e+01,-5.880332907842955592e+00
1.121429848058917145e+01,4.607564006686561697e+01,-9.594899932024191003e+00
-6.864831243385197013e+00,4.770487170477383643e+01,2.964864595074018894e+00
-2.657193558520930310e+00,4.909275527197962674e+01,8.220506171031047415e+00
-1.592417095998030163e+00,5.065829378657598170e+01,9.087890353064949522e+00
-5.332663414695844040e-01,5.217261031385741177e+01,9.780656066345727595e+00
-4.701375594102501054e+00,4.773986381540532875e+01,6.161738747485173917e+00
-3.559808285745248213e+00,4.724661548687490153e+01,7.459937813332032874e+00
5.574612255268789340e-01,5.372444556126846038e+01,1.030556396920042062e+01
-5.887314289315099813e+00,4.646085021716987740e+01,4.637117844148320955e+00
1.996590759712589147e+00,5.514568744930819832e+01,1.063140817661576421e+01
8.544283482268639318e+00,5.926423479955138873e+01,8.151563770612824555e+00
6.863728020470176716e+00,5.921732907650772404e+01,9.179047450587916046e+00
5.318103679204142509e+00,5.797480741583461850e+01,9.921925855110146131e+00
3.585119052236947823e+00,5.654073705396093175e+01,1.048658637535345406e+01
-7.617367225722546209e+00,4.615624359378887220e+01,1.694701589127316055e+00
-8.750968875601415675e+00,4.655425099965032132e+01,-1.244851459278919492e+00
-8.327148351222717793e+00,4.495567742136529432e+01,2.410709981200511720e-01
-9.154326817651053716e+00,4.757690430475838639e+01,-3.430652018279559456e+00
-9.277896332045088457e+00,4.621307525107977199e+01,-5.474975799232367990e+00
-8.730460051503882823e+00,4.676333910867060695e+01,-7.567574895659994638e+00
-6.442939708054609582e+00,4.640215589638273741e+01,-1.029884792870362276e+01
-7.858644100172909930e+00,4.535925889396253297e+01,-9.103730949754378798e+00
-4.708894699550910445e+00,4.766002498185912373e+01,-1.114336272721692467e+01
-3.100977569216865959e+00,4.603378996727428785e+01,-1.181729208041332413e+01
-1.182780441261797932e+00,4.682044523032101324e+01,-1.209885973559210015e+01
2.610559367826340349e+00,4.721956690094486930e+01,-1.214383274801946300e+01
7.809941893725635964e-01,4.585779309557148053e+01,-1.232450775924178288e+01
6.334636686482326695e+00,4.703516221621953264e+01,-1.161489314654215832e+01
4.595030645995734631e+00,4.601163227952793022e+01,-1.202259837981478086e+01
-4.837491134679524407e+00,1.955941185317422253e+02,-1.311178074723255804e+01
1.371994971086650139e+01,1.894345953461106546e+02,-1.122716478014899621e+01
1.241683265032975214e+01,1.908943336837712081e+02,-1.187421226198398472e+01
1.922449053189242818e+01,1.801667487473256415e+02,1.327875486595360144e+00
2.046917513022106050e+01,1.810061240435695709e+02,2.437305511920158096e-01
2.150890074653273132e+01,1.815752983879964404e+02,-9.994803469845123800e-01
2.216882854448749640e+01,1.828587363490423741e+02,-2.390595559686289562e+00
1.752427204732583021e+01,1.804450488148782767e+02,2.410286114271656288e+00
2.161013516010007152e+01,1.884507781138040627e+02,-5.811973504176307870e+00
2.036339176386627514e+01,1.887909275164531095e+02,-7.054699614116429984e+00
1.888062371019202601e+01,1.892995556364901404e+02,-8.202953489922947483e+00
1.729532397143532307e+01,1.899136365003395213e+02,-9.282776344795365731e+00
2.220925525191614724e+01,1.870012692692247356e+02,-4.647203854288449065e+00
2.211916093284025919e+01,1.852988022771695569e+02,-2.129915066182661576e+00
2.233576765049247115e+01,1.872183598628756727e+02,-3.105741971768992471e+00
1.535945138401001486e+01,1.901020179591159263e+02,-1.042370519836333642e+01
5.560502018801816604e+00,1.934151713974472386e+02,-1.405550814600178455e+01
7.354980296872881240e+00,1.929690556042697267e+02,-1.361930621163855903e+01
3.639048170012710415e+00,1.936879485874643194e+02,-1.436732462113945985e+01
2.994130177738485443e-01,1.944750480530697132e+02,-1.450957413817900488e+01
2.258102781131157144e+00,1.952950073300974054e+02,-1.456270232601184489e+01
-3.086646984061099719e+00,1.959769969309928683e+02,-1.391208962195486265e+01
-1.150601401907238142e+00,1.963580705534891990e+02,-1.438218586607592897e+01
1.069387122917819966e+01,1.923074098100860851e+02,-1.258840057460633943e+01
8.978235488047573654e+00,1.939239171124181667e+02,-1.319038349880611349e+01
-4.964357629560936402e+00,1.912313021849729466e+02,-3.042058410774188815e-01
-3.627285693701196578e+00,1.911771850470757101e+02,1.588649622024377095e+00
-2.372056932991881695e+00,1.899801773602483763e+02,2.962642761626284482e+00
-6.002848423934210587e+00,1.923250034162747397e+02,-2.236400552549866916e+00
-6.791733286438159212e+00,1.932095109126269108e+02,-4.329921676914864292e+00
-7.260788125423800921e+00,1.938282538635530727e+02,-6.389045279946458322e+00
-7.410068840050598737e+00,1.950018245889944524e+02,-8.492524401589662375e+00
-7.165294265234422255e+00,1.964530220875488737e+02,-1.018826290711854199e+01
-5.625433989423470393e+00,1.975646349093214553e+02,-1.265591521673388797e+01
-6.641273512146199209e+00,1.979944304043914656e+02,-1.150352992018497389e+01
2.406967075210332041e+00,1.878762259062049793e+02,5.697208754059602143e+00
5.119346036949423251e+00,1.870395802858217280e+02,5.443634700199027066e+00
4.358143530443157942e+00,1.891848001772226553e+02,5.646869293200097673e+00
6.968976149564696243e+00,1.860466923418363763e+02,4.940427657176087450e+00
-6.581156056236068252e-01,1.895242509363691283e+02,4.329004043286431624e+00
1.070090611918431023e+00,1.890388923729302064e+02,5.306740738484222675e+00
1.144946272279605637e+01,1.841784180025169064e+02,4.321800360793986329e+00
9.214513397552991592e+00,1.850205063115012649e+02,4.572615145283862148e+00
1.682087197586116645e+01,1.826898682500627729e+02,2.774889108096203927e+00
1.384540044714412943e+01,1.844598353389695262e+02,3.892249409550402106e+00
1.589803627999469882e+01,1.846982158508367888e+02,3.199119504141577863e+00
8.333750169665194107e+00,4.590705574528215038e+01,-1.119640870587602421e+01
1.018462290949145199e+01,4.469501268394105864e+01,-1.052838792472300611e+01
9.300842767373751485e+00,5.732027476632634944e+01,7.633334295128790359e+00
9.947746053485957418e+00,5.511616631147353473e+01,7.146345221961141192e+00
1.311461404925512397e+01,5.259510654280734343e+01,2.299811520692244926e+00
1.236030290996427539e+01,5.376799136854253902e+01,4.004405804171426553e+00
1.118270583815194641e+01,5.315223725306543656e+01,5.920623541560132708e+00
1.362203255577196614e+01,5.147559632820866682e+01,5.294537695318979331e-01
1.389418983253187889e+01,5.065740718561892209e+01,-1.272401335015842960e+00
1.391453807756465721e+01,4.956107284369090848e+01,-3.020545738563953364e+00
1.388396650310261293e+01,4.753413908687389267e+01,-3.867519059377855228e+00
1.299712536806896424e+01,4.648839677379123714e+01,-7.154994907053037423e+00
1.247635234996030817e+01,4.507505832681022184e+01,-8.358804483497522142e+00
1.368565276327058200e+01,4.585400338084650684e+01,-5.408341455996207969e+00
1.169861968502220861e+01,4.365180522292234855e+01,-9.529607541942255011e+00
-6.814011051429361032e+00,4.497052937658963856e+01,3.274123022534617178e+00
-2.306940171391943295e+00,4.643532253999873660e+01,8.644563811804346187e+00
-1.321357185273313917e+00,4.814244789343396747e+01,9.356186966964969542e+00
-2.897871889266525613e-01,4.972266705836516110e+01,9.952026449307140865e+00
8.719809701763665544e-01,5.125015330757326382e+01,1.043115907661888286e+01
-4.723724859640697105e+00,4.541986272090554166e+01,6.242117471243432192e+00
-3.482948843605981892e+00,4.470881853751836843e+01,7.660611946017809260e+00
2.194924086439669964e+00,5.274801554498336031e+01,1.072766979083951355e+01
-5.832637736839387799e+00,4.390762126752144923e+01,4.906064837971271686e+00
3.901898372222746048e+00,5.415337346115471462e+01,1.055654837124728829e+01
7.295465044615212946e+00,5.713745490115360326e+01,9.063382804240603718e+00
5.567949899446546169e+00,5.572043976467165294e+01,9.984184583078359765e+00
-7.665702188367845338e+00,4.349616313562955838e+01,1.872984509500255967e+00
-8.938475590821212791e+00,4.378127413221784536e+01,-1.387986334696364565e+00
-9.227158150126570035e+00,4.526722493181011941e+01,-3.119419083567336770e+00
-8.437812341070184630e+00,4.228219113562556686e+01,3.263799326070113693e-01
-9.432735737010716548e+00,4.411966199023731861e+01,-5.080848242869976161e+00
-8.994447790501226336e+00,4.418761881031832672e+01,-7.274420125495211664e+00
-4.986208274822956810e+00,4.544926348459966903e+01,-1.122387210927655588e+01
-6.527606201199660063e+00,4.385510792590275742e+01,-1.040320776592153607e+01
-8.157088491946183240e+00,4.312436307498637689e+01,-8.886675196874364246e+00
-4.548694743300529808e+00,4.355460049468433681e+01,-1.151440832900306077e+01
-2.733100853213045411e+00,4.384970569245490424e+01,-1.206647266394605822e+01
-8.853600802630126054e-01,4.428809913502584550e+01,-1.234312815262865115e+01
2.823853791219903542e+00,4.488593639418093062e+01,-1.232470707784011665e+01
1.171664733890793286e+00,4.340525633562106123e+01,-1.252711668615097551e+01
6.697696752316971924e+00,4.474655592254077874e+01,-1.177619354687158193e+01
4.955936525528500169e+00,4.363286037824224195e+01,-1.221574526471761146e+01
-4.204609251956888727e+00,1.980838134642068269e+02,-1.354135681506042488e+01
1.433849104193257062e+01,1.920016635826535776e+02,-1.104856128713129237e+01
1.256791034817575792e+01,1.931749979669066306e+02,-1.190004458507689833e+01
1.863105098482989774e+01,1.824039413245075139e+02,1.684514905828052633e+00
1.999928612186658938e+01,1.833853133653490204e+02,5.905666265690001637e-01
2.132307686989486228e+01,1.838917861381917191e+02,-7.443154614978766404e-01
2.234937223136080320e+01,1.892715363184650528e+02,-4.288758644855079183e+00
2.117146677159939827e+01,1.907593803149742939e+02,-6.437010194365939242e+00
2.210428012252714325e+01,1.909639807181519586e+02,-5.211806886354963808e+00
1.987530630201172244e+01,1.910879712792406053e+02,-7.593100916438174863e+00
1.835463501001765962e+01,1.915972580159685208e+02,-8.707419560435710082e+00
1.645036846337251291e+01,1.918300933707469085e+02,-9.906095671704861161e+00
2.122511627468918505e+01,1.862059410209346879e+02,-6.587973963000308686e-01
2.180514626605770445e+01,1.879832593237813398e+02,-1.450496663954197629e+00
2.226368821219216443e+01,1.897537314786699199e+02,-2.546461468476053369e+00
6.914830167240864967e+00,1.953304080635409150e+02,-1.381577386960884724e+01
4.687732633905071111e+00,1.957992381968307427e+02,-1.429404459734473676e+01
7.465402577817217278e-01,1.969168936741563698e+02,-1.462181560819021797e+01
2.977093892138981346e+00,1.974265720876215369e+02,-1.459287851244675949e+01
-2.490555805387486998e+00,1.983297543826514868e+02,-1.416008358929076394e+01
-6.701930674305849323e-01,1.987998384991988701e+02,-1.455334983820409889e+01
1.085277348314957635e+01,1.946593609140321632e+02,-1.261497682697950040e+01
9.170266595604516624e+00,1.961480869402399208e+02,-1.320755641833216032e+01
-5.185261896823021743e+00,1.940199461652488253e+02,-6.534776618557316397e-01
-3.967126590714769918e+00,1.934129815673803137e+02,1.179341864142998020e+00
-2.546741157584847315e+00,1.927281656667251468e+02,2.784149322635130375e+00
-1.053246798648160620e+00,1.918427442780096612e+02,4.046407921210402492e+00
-6.219254659663988605e+00,1.948654795862971127e+02,-2.643409732547524982e+00
-7.008422690422264623e+00,1.957269783955144931e+02,-4.848904391924179436e+00
-7.403483455846455286e+00,1.962593859354893766e+02,-6.893580246312694726e+00
-7.537129663814091884e+00,1.977903580930145608e+02,-8.428714495546955732e+00
-7.354175954879025312e+00,1.992856100728136539e+02,-1.000339060071974018e+01
-5.390582182423344193e+00,2.000962360945437126e+02,-1.292181091865245435e+01
-6.700018494775633826e+00,2.004578267243596201e+02,-1.164972983003872287e+01
2.612362702288919536e+00,1.903852586583067534e+02,5.737568923158960388e+00
6.609972670883962564e+00,1.885216645810419038e+02,5.051001109451362936e+00
4.321509771259343324e+00,1.918449391670485511e+02,5.672854288208327489e+00
6.134126836179120801e+00,1.907984468326687590e+02,5.216096969219506718e+00
8.721809756352627119e+00,1.874714174713334387e+02,4.590793703784584068e+00
7.637482689247008238e-01,1.911599735917275211e+02,5.135211742083356512e+00
1.288712952968398895e+01,1.863475001919420038e+02,4.050227515769392994e+00
1.091745767310885640e+01,1.867788781945490939e+02,4.314992232986014642e+00
1.801222924771070666e+01,1.847635126798348040e+02,2.029279437044380074e+00
1.487347314579625390e+01,1.866039117666717289e+02,3.564928284303789496e+00
1.671994972610592356e+01,1.868938322291868985e+02,2.772303350901509589e+00
8.739100839249488217e+00,4.364078536461886415e+01,-1.133441469572846927e+01
1.057025582510169670e+01,4.212651624087959590e+01,-1.063083393501585761e+01
8.281957459472266692e+00,5.553370883794860902e+01,8.517697244811735402e+00
9.978916552885380042e+00,5.267529336782888549e+01,7.286496317331341288e+00
8.579368848471403908e+00,5.341024615558382038e+01,8.431686217671213512e+00
1.305035578413060193e+01,5.031151247161392348e+01,2.585189292644798797e+00
1.209086276180892128e+01,5.147261429910997776e+01,4.540306791684258769e+00
1.079941103901990118e+01,5.050730732517808974e+01,6.452401723918342213e+00
1.366199159538371077e+01,4.918004045110569677e+01,5.583857501707711890e-01
1.394285792765447241e+01,4.838176975239571220e+01,-1.498647601379673233e+00
1.403446264284525569e+01,4.507902948369087426e+01,-3.617217009811668049e+00
1.401367148911418781e+01,4.638679283292367472e+01,-1.978406635092653687e+00
1.335772152292105375e+01,4.426899900159799017e+01,-6.768933420900850706e+00
1.291420130245638198e+01,4.283922460461212722e+01,-8.114332314511216282e+00
1.391159664520966999e+01,4.347402033142452638e+01,-4.976087661578560528e+00
1.221535175028128606e+01,4.140724981501068669e+01,-9.373734530376395924e+00
-6.850774444158560073e+00,4.231639267550269778e+01,3.516016042938177932e+00
-9.389096003891381770e-01,4.551149740647255726e+01,9.612596962658130906e+00
-2.073226656394808742e+00,4.389943850830468364e+01,8.884448702525332919e+00
7.149808769463561475e-02,4.718376997796404737e+01,1.016559997952469985e+01
1.197997729971007175e+00,4.876955855192892386e+01,1.058770548458483063e+01
2.512521073667784322e+00,5.023321956575318126e+01,1.084434958327585719e+01
-4.705552340247322718e+00,4.297953244885923141e+01,6.470545005091736357e+00
-3.368271695468592952e+00,4.225171652896682417e+01,7.898350957275681594e+00
4.018058506513604300e+00,5.162645037631719447e+01,1.067909299603940099e+01
-5.850630857304622623e+00,4.137624908735926965e+01,5.155994385092611765e+00
5.655629169585026261e+00,5.281976102808052786e+01,1.011532831348350214e+01
6.894214082875066651e+00,5.426979772506749100e+01,9.462118864183594269e+00
-7.745242071462485001e+00,4.088974161527983142e+01,2.035473768005289230e+00
-9.093742243310202866e+00,4.127668844288587024e+01,-1.462029059778359397e+00
-9.409415967459494823e+00,4.273031535496147626e+01,-3.293232980909181151e+00
-8.561640100952899957e+00,3.980526458073222784e+01,3.337865532271280244e-01
-9.445766365134772968e+00,4.208891272200389722e+01,-5.841083888386719991e+00
-8.885893113606925908e+00,4.123459722907841751e+01,-7.812513221530252849e+00
-7.349766848535068675e+00,4.153612451247965964e+01,-9.897415522003143451e+00
-5.596222051635550088e+00,4.171688353296030982e+01,-1.113131250048655829e+01
-1.765365817111387514e+00,4.181676463256383158e+01,-1.241653756309767687e+01
-3.676353282543914247e+00,4.156638286865018017e+01,-1.197198761998203054e+01
-3.007059756782837212e-02,4.173596263425912412e+01,-1.265054830934730035e+01
3.202863718926096226e+00,4.257176642810890144e+01,-1.252598262673870977e+01
1.686293573221291808e+00,4.073894453534001059e+01,-1.277623535111104047e+01
7.011929352418121653e+00,4.243993350971027212e+01,-1.198512861971380516e+01
5.450333751854941511e+00,4.126599957992539203e+01,-1.242094911210392638e+01
-3.791252193339737175e+00,2.004419005928611170e+02,-1.380072577463565153e+01
1.411448557608241572e+01,1.944973204560393469e+02,-1.126450472745148090e+01
1.580073687483030653e+01,1.938234276750721392e+02,-1.038099562948912080e+01
1.248008592757889801e+01,1.956213809325693660e+02,-1.203579208432824998e+01
1.988219216217214580e+01,1.856451630393365804e+02,6.455985365844298940e-01
2.243809299566351001e+01,1.918490707286077850e+02,-3.763976983280057809e+00
2.186881853613249405e+01,1.928613668083874018e+02,-5.832741205532727236e+00
2.079985830621160403e+01,1.930108941267743035e+02,-6.950495898789313287e+00
2.245072197454965135e+01,1.941610080573626647e+02,-4.839428107929393263e+00
1.942586502621497857e+01,1.933555082997660293e+02,-8.067470231397123825e+00
1.765508774516001722e+01,1.935861549427472710e+02,-9.274733220013899881e+00
2.043154232745598620e+01,1.882792903461481728e+02,1.582839010590078033e-01
2.126047178335818444e+01,1.903598831962496547e+02,-7.086879157796488471e-01
2.196968281772933551e+01,1.919426477582230746e+02,-1.829862764993606561e+00
7.259068200273105731e+00,1.973621033890426588e+02,-1.378324256187966057e+01
5.181306610370313592e+00,1.980292769082790869e+02,-1.426933722229364321e+01
1.275899148878174572e+00,1.991056086474419544e+02,-1.469714166697963265e+01
3.380644476168868096e+00,1.996306436174868395e+02,-1.460227923431602903e+01
-2.025018404769912905e+00,2.006608040666618535e+02,-1.436289624698542866e+01
-1.584303666678721356e-01,2.010970658146673031e+02,-1.468617347528322625e+01
1.113530402451934265e+01,1.972050253256181804e+02,-1.259774159135758964e+01
9.184197958849466659e+00,1.983979470467565420e+02,-1.327243293650508349e+01
-4.221417746551423988e+00,1.958379218556590047e+02,8.432995474565814220e-01
-5.485184282941759193e+00,1.966985438324385882e+02,-1.099386808365807155e+00
-2.776559372846804763e+00,1.951760328293626117e+02,2.539071672621275866e+00
-1.198992032849673706e+00,1.942797761460915353e+02,3.908578366224674028e+00
5.274818194250201486e-01,1.933582144249228634e+02,4.952144960361238191e+00
-6.536333625388124347e+00,1.972523001478204776e+02,-3.252179005372454412e+00
-7.359966242263624281e+00,1.983037453930063236e+02,-6.017321553787496669e+00
-7.624839541939318011e+00,2.001290954638117796e+02,-7.788272579829936149e+00
-7.579489282548706797e+00,2.015758017797879802e+02,-9.541527392927491746e+00
-6.038567899954330187e+00,2.025734057304287035e+02,-1.258267027110582603e+01
-4.709681292203072189e+00,2.026642719499868122e+02,-1.349517632818390211e+01
-7.099254726484019784e+00,2.026576260152796181e+02,-1.118836239694564938e+01
2.378724918003172206e+00,1.926325707501861473e+02,5.641935868923383168e+00
8.287138804472533593e+00,1.898871091836666665e+02,4.644258727036913115e+00
6.145747972722801933e+00,1.933463529019426801e+02,5.269589832441170074e+00
4.240186045292603012e+00,1.942155233916137718e+02,5.647867074140322075e+00
7.883197909376576717e+00,1.921768216069831396e+02,4.736018163893959354e+00
1.036868288735593069e+01,1.892404174927338261e+02,4.327726422297018871e+00
1.392613531519532444e+01,1.885128751722874654e+02,3.826102820412472738e+00
1.235485751134319798e+01,1.889098312545524436e+02,4.084771055586656985e+00
1.855209385924712251e+01,1.871839116497469035e+02,1.656591196712383862e+00
1.548057880965259869e+01,1.890357695586507134e+02,3.335336647523945430e+00
1.719679078182367959e+01,1.892215550846278234e+02,2.510059424178372467e+00
8.786488697200638853e+00,4.148309167048421386e+01,-1.158799429293003413e+01
9.680634560259704813e+00,3.975718365419311340e+01,-1.144845724750985028e+01
1.138507171866069712e+01,3.979856392834949474e+01,-1.040047276707866786e+01
9.145830349390621450e+00,5.097782454427442644e+01,8.125001362567076058e+00
7.474281913504569275e+00,5.177841623752127020e+01,9.277771775506565177e+00
1.310836515710263939e+01,4.806422916976430315e+01,2.481648084641221885e+00
1.212124397984462121e+01,4.922583976197199718e+01,4.564329801599740222e+00
9.655737842032124263e+00,4.879008161696629031e+01,7.812986880226247877e+00
1.109066412984736871e+01,4.804063315560119918e+01,6.226378491384537028e+00
1.374595372942553695e+01,4.688955120657124098e+01,2.000986106637014927e-01
1.406278318333551169e+01,4.430930226964619578e+01,-1.667117795199715147e+00
1.413664233575178741e+01,4.270175705779899999e+01,-2.937157760293302999e+00
1.374856738922210297e+01,4.472486775763263722e+01,2.272433612708937289e-01
1.365639505877155102e+01,4.200377084809565531e+01,-6.442326856773888721e+00
1.326524554866754180e+01,4.065018178989930675e+01,-7.836686895443165213e+00
1.409840917952362815e+01,4.119954033798069304e+01,-4.451910884916514988e+00
1.269920783132465658e+01,3.915287561967500096e+01,-9.057857413568626725e+00
-6.890970971546948931e+00,3.974880262239707918e+01,3.722133345955228378e+00
-5.625209937154522777e-01,4.295028992298662729e+01,9.897183866596719781e+00
4.940790611123020426e-01,4.461602698361835451e+01,1.042808435249799004e+01
-1.861405110320674794e+00,4.144445800498061772e+01,9.093093170777137857e+00
1.570243100326592867e+00,4.631048744322187360e+01,1.079891656538416100e+01
2.919218368468818881e+00,4.782340096552189834e+01,1.099862713005450132e+01
4.437376614697299715e+00,4.914421349173947107e+01,1.074749613237150925e+01
-4.655875238367116253e+00,4.055693166424714491e+01,6.687485346980594159e+00
-3.252830002324344605e+00,3.986498565457048926e+01,8.070980044619489036e+00
5.982672486986714944e+00,5.038596818177955328e+01,1.013607159173815830e+01
-5.875942800630582497e+00,3.889093318168067981e+01,5.369335574862745375e+00
-7.858089951466354250e+00,3.842317141240982892e+01,2.129219912227682698e+00
-9.272682121121647469e+00,3.901017552225471263e+01,-1.711814936638404561e+00
-9.540832100580928454e+00,4.053743650136937049e+01,-3.671227101476944199e+00
-8.796147974283030635e+00,3.758128306820515263e+01,6.986096648796547015e-02
-9.545799216180967051e+00,3.971432691126312875e+01,-5.739465109372304141e+00
-9.136174318755820423e+00,3.859419226247871393e+01,-7.530290610934287088e+00
-8.065279898084099841e+00,3.955875528900628524e+01,-9.211048611246724249e+00
-6.334161018829490786e+00,3.972416736490981748e+01,-1.081637323189187327e+01
-4.540296985746181235e+00,3.952079600428123740e+01,-1.181333728630903579e+01
-2.483111878494810298e+00,3.964779701572024351e+01,-1.247529824304939439e+01
-4.910598141921127535e-01,3.938083096617947376e+01,-1.283638926926039403e+01
3.663044167714133437e+00,4.042912600974295856e+01,-1.272984368331913174e+01
3.282605844640102077e+00,3.831000206500345939e+01,-1.302657291530169914e+01
1.299197792785435013e+00,3.848565083226344541e+01,-1.303548025175166458e+01
7.328376144188439412e+00,3.978198415468739313e+01,-1.224019078593164522e+01
5.292484450787412698e+00,3.888612992448611294e+01,-1.275570229209608897e+01
-3.055185223943247763e+00,2.028848792693488576e+02,-1.412447874579834206e+01
1.549036169074429381e+01,1.962750239832597003e+02,-1.067025765318862796e+01
1.377240009627482209e+01,1.969932184007549836e+02,-1.153751248735420631e+01
1.713173529362552472e+01,1.957335640820363096e+02,-9.707705607263847014e+00
2.245007691376008552e+01,1.939975619326675087e+02,-3.038236377331443805e+00
2.163519495200807796e+01,1.949636979306151545e+02,-6.293865160427117189e+00
2.044371134919049382e+01,1.951777163925852392e+02,-7.386951300300779621e+00
2.261118594468075571e+01,1.962250809826345517e+02,-3.894119369784181828e+00
2.229793310778109117e+01,1.965998238534490383e+02,-5.543787688786608214e+00
1.888083821736881873e+01,1.953787171549043364e+02,-8.575290481639171958e+00
1.897229995394690150e+01,1.893712588718343000e+02,1.360702429456125628e+00
1.988825513788862054e+01,1.911532066842859479e+02,6.730569454384323080e-01
2.065347196012476161e+01,1.931381061936728543e+02,2.823621529401521002e-03
2.166145386337177570e+01,1.940717974703663913e+02,-1.262826093395403859e+00
7.038394189454805883e+00,1.995319583971667612e+02,-1.389348437531907621e+01
5.149560788697897351e+00,2.006614576267882057e+02,-1.433727757476617626e+01
1.720984799369176699e+00,2.011847181848330877e+02,-1.476066523416204745e+01
3.310321988481092603e+00,2.021755590928879371e+02,-1.465887824783089854e+01
-1.330125710175806830e+00,2.030263107477576341e+02,-1.455537913152693363e+01
8.903694554052776766e-01,2.033343993846234241e+02,-1.476130501253715011e+01
1.099992750981385825e+01,1.995715662675815452e+02,-1.272111561753035858e+01
1.280612038811787556e+01,1.988442681343698268e+02,-1.202469955415062941e+01
8.860716386841545500e+00,2.006412561758641004e+02,-1.342681815302034920e+01
-4.512248204725665346e+00,1.982295184668130332e+02,4.686147689465087751e-01
-3.120421403509453739e+00,1.975971048485212691e+02,2.185991233996219307e+00
-5.940198434982107756e+00,1.991956434878067910e+02,-1.842585431937550311e+00
-1.419254270417241059e+00,1.966575855000832291e+02,3.725516971334855043e+00
3.803453128775799996e-01,1.956757602291265528e+02,4.825427730730780240e+00
2.201813039234139069e+00,1.948408867577806518e+02,5.475863523646467002e+00
-6.919254953828215093e+00,1.992989544117374408e+02,-4.168384680211602245e+00
-7.445237574975777761e+00,2.010993990178705246e+02,-5.909945594644341327e+00
-7.779305599066617560e+00,2.030311550555852307e+02,-7.742902434166580861e+00
-7.630750413225257489e+00,2.041453629730212640e+02,-9.887992469138453089e+00
-5.568265425286341497e+00,2.050294551547194146e+02,-1.308163705671722710e+01
-6.789176196960596599e+00,2.048144846721640420e+02,-1.187479061254452972e+01
-4.088294796735425507e+00,2.050158507185613814e+02,-1.382859505679873280e+01
9.883256739504304278e+00,1.916162075633025097e+02,4.329247765867194175e+00
8.470764457605355346e+00,1.942731903648995910e+02,4.587580483094825468e+00
6.376456269510754282e+00,1.956255488565398650e+02,5.192543930391821050e+00
3.835585247108838303e+00,1.962698781199657958e+02,5.620651047402816403e+00
1.203333593831405324e+01,1.912189991575038448e+02,4.073510145042746444e+00
1.402494769992688362e+01,1.909894091025672651e+02,3.757862961719808936e+00
1.594874802844984174e+01,1.913474542792052944e+02,3.119669783388147266e+00
1.791851203802194448e+01,1.915035609053976486e+02,2.109212533533302292e+00
8.583891417598977114e+00,3.785324143164643829e+01,-1.215588420729352492e+01
1.054703289130145549e+01,3.771921830951612264e+01,-1.128143874111424338e+01
1.207466424689539508e+01,3.746597035084926119e+01,-1.011701586676224451e+01
7.898487658645080955e+00,4.944906154093075656e+01,9.155602580581444272e+00
1.319056229201589758e+01,4.592446667737908683e+01,2.219120397292726921e+00
1.229600144882545010e+01,4.690780761822907152e+01,4.348340093023125519e+00
1.008410601999798928e+01,4.650291404517531646e+01,7.585050849335004841e+00
8.391330974048685221e+00,4.717584362973667567e+01,8.998291011741741841e+00
1.140617823998184122e+01,4.559311726924602226e+01,5.942534538142012934e+00
1.394823256275697076e+01,4.242274897538061396e+01,-5.512721625161702832e-01
1.420814629021197106e+01,4.060756807413167735e+01,-2.121509923591418101e+00
1.329670535625052707e+01,4.363314478148527087e+01,1.918828573627990863e+00
1.391676977514285340e+01,3.980271589982748992e+01,-5.974400568890189334e+00
1.359624894047578891e+01,3.845550654656449296e+01,-7.376417019011057619e+00
1.425041276026007608e+01,3.909011926152697924e+01,-3.844442856257444419e+00
1.319589602475519996e+01,3.690239278302817638e+01,-8.637712156477277858e+00
-6.997509243982335647e+00,3.723914301201602939e+01,3.904736960578063076e+00
1.042361219325584898e+00,4.209123522811921703e+01,1.071452986734550450e+01
-2.195215170804658555e-01,4.062740552093600854e+01,1.011996277642822406e+01
2.010745020285185092e+00,4.383317049805843624e+01,1.099895605409790278e+01
-1.604313374256207680e+00,3.921270828418624887e+01,9.296477701164462815e+00
3.362398056366089349e+00,4.552975924905648242e+01,1.106945903995830349e+01
4.999237791479401949e+00,4.676671891556706839e+01,1.069963598757493628e+01
6.548672917323983711e+00,4.797623777595424599e+01,1.001314701347965297e+01
-4.589583012951834462e+00,3.819224668749353668e+01,6.924753356049308195e+00
-3.089356529146016328e+00,3.762178440326653117e+01,8.274076490951472351e+00
-5.842057682059021317e+00,3.655941994891077229e+01,5.667654336538276993e+00
-8.261255922899749748e+00,3.629671669537231082e+01,1.605515538710250212e+00
-9.426104894629474984e+00,3.662626239797839389e+01,-1.799775492936760202e+00
-9.647589055474554698e+00,3.816715198601093562e+01,-3.679008483521556627e+00
-8.998718315318569694e+00,3.519439841376697586e+01,-1.373447726946892544e-01
-9.680842919119186263e+00,3.721757990433081886e+01,-5.675918503932052772e+00
-9.296033930904627596e+00,3.595602926769231544e+01,-7.469227230089472869e+00
-8.381605489520893570e+00,3.708519419356412072e+01,-8.989006135787178664e+00
-7.075836041620732431e+00,3.794257241753132348e+01,-1.036268954596863523e+01
-5.442068641296714304e+00,3.742081737959802012e+01,-1.157237755988887784e+01
-3.377359963420985878e+00,3.771565262768683624e+01,-1.240727134326954229e+01
-1.536085865995801214e+00,3.726583955287333083e+01,-1.290795384526018097e+01
2.897364581572219322e-01,3.659635470726698259e+01,-1.319977761770610414e+01
2.454206917504734520e+00,3.629178388163029467e+01,-1.329786454326983858e+01
4.708732042964356879e+00,3.640242750866070764e+01,-1.316526981654089923e+01
6.606697453848028090e+00,3.726538743865319248e+01,-1.277674309407461806e+01
-2.558051373938980078e+00,2.054916093909521351e+02,-1.431393462032218622e+01
1.680419218599098485e+01,1.982493003068777568e+02,-1.003972677265210223e+01
1.510767047726625378e+01,1.986312051578547653e+02,-1.096531532222752503e+01
1.835966932692303999e+01,1.975095931776115208e+02,-9.039914019890147756e+00
2.207284853764849686e+01,1.961243792351962725e+02,-1.999071858829097437e+00
2.132342146495773250e+01,1.970772243008073303e+02,-6.735657349847315345e+00
2.000911528423432628e+01,1.971696853661634350e+02,-7.859608094886084473e+00
2.242391317707483722e+01,1.982013165217109076e+02,-2.755234710809936871e+00
2.262745893278338372e+01,1.984991565791366384e+02,-4.623953106190100470e+00
2.201586926391541965e+01,1.988459230188190361e+02,-6.094933469256488934e+00
1.889264413440491808e+01,1.934818660307186065e+02,1.507778184863532545e+00
1.947453264983573717e+01,1.956587060835128113e+02,1.087852734133186061e+00
2.085610841162679208e+01,1.958780799250707787e+02,-2.085236114767923254e-01
6.976518288006928969e+00,2.020230978525920023e+02,-1.396789248788877558e+01
5.095819005116823064e+00,2.032627302596477250e+02,-1.441496404915528728e+01
2.705048273702800543e+00,2.044416205147431924e+02,-1.473418013413743211e+01
-6.515839965719862903e-01,2.049394892841004605e+02,-1.464144950180661908e+01
8.757464612024250528e-01,2.060109361660174727e+02,-1.477335693107079351e+01
1.267821371456111024e+01,2.015608213760442879e+02,-1.213740543276890094e+01
1.070575254762843542e+01,2.016712229406400070e+02,-1.286247264121425360e+01
1.431933220592463840e+01,2.004176956995892454e+02,-1.141199329991468403e+01
8.967806153621097565e+00,2.030451505620133901e+02,-1.345933094098768379e+01
-4.892937941790023615e+00,2.003127917329505294e+02,2.351226789869542699e-04
-3.453380504192637090e+00,2.001957648520050270e+02,1.876173284806782249e+00
-1.917131864033990496e+00,1.988620285157577712e+02,3.333529891123816924e+00
-5.801030260001653005e+00,2.017647630484736112e+02,-1.447954623922441897e+00
-6.749393923316233668e+00,2.013824040914612965e+02,-3.518717825215162520e+00
1.270061955219716765e-01,1.980749191391268198e+02,4.679862730148215633e+00
1.942541886895241987e+00,1.972093056090549226e+02,5.331576840383831950e+00
-7.384894930439372729e+00,2.033505086122219438e+02,-5.192240519035749458e+00
-7.759999115127143909e+00,2.053416939974975719e+02,-6.534830998692996218e+00
-7.891077106489177595e+00,2.058054811670558593e+02,-8.749998975544713176e+00
-7.392890450282038728e+00,2.065332009020458486e+02,-1.094949097243306824e+01
-4.753711048526241711e+00,2.073992697198706310e+02,-1.361614275816242525e+01
-6.300618195513493447e+00,2.071724637562645341e+02,-1.252337311592589231e+01
1.088888217796557001e+01,1.934914134026731745e+02,4.168185833558709419e+00
8.408543838099149070e+00,1.968115790874644517e+02,4.627775530593680742e+00
1.018960893027633574e+01,1.957894567851515149e+02,4.261918752825749834e+00
5.406562331955910850e+00,1.975613759242714877e+02,5.457449471391555562e+00
7.152430091604401241e+00,1.984929970520510665e+02,4.991220588461601437e+00
3.555940127020221553e+00,1.986705992501358935e+02,5.594617019567522220e+00
1.308477853337649321e+01,1.932770900947371899e+02,3.897951147539401973e+00
1.492021559646343576e+01,1.933537815750776758e+02,3.499077573566751198e+00
1.687255510196702346e+01,1.936134089441669630e+02,2.733034135711413626e+00
9.619819419969019236e+00,3.575542094283810002e+01,-1.210301149690076272e+01
7.742755909198479003e+00,3.565286928949012690e+01,-1.278124471355192782e+01
1.135148024415980217e+01,3.553876391213145780e+01,-1.110386938837814341e+01
1.276149857540377752e+01,3.516531998865161768e+01,-9.776925269233913696e+00
1.250144717178636711e+01,4.461745247520741486e+01,3.983192926007518508e+00
1.055942009687140626e+01,4.407783574111607550e+01,7.149150884084065183e+00
9.076677216024052086e+00,4.507402266504033150e+01,8.648249321853484162e+00
7.028543148356238390e+00,4.561870031378582269e+01,9.928267162310945082e+00
1.177725174550744214e+01,4.324183085987112918e+01,5.374199382974154560e+00
1.388346664899052030e+01,4.004360311386528792e+01,-1.311495258386230489e-02
1.350820761373984169e+01,4.161485849247083024e+01,1.344075267069058555e+00
1.418900692001983543e+01,3.845043205888362081e+01,-1.643883882792522400e+00
1.274267408875437013e+01,4.220828100973994879e+01,3.450446373853196746e+00
1.413967395343303224e+01,3.762117933773538425e+01,-5.407460805368430101e+00
1.390799598219899735e+01,3.620213349575658413e+01,-6.892238899472886260e+00
1.434075719427340800e+01,3.689278581210567154e+01,-3.243685329954018925e+00
1.364097489563192056e+01,3.464387238057929608e+01,-8.169827830236442878e+00
-6.742147504010404191e+00,3.478534234139840464e+01,4.599563683041182571e+00
-7.638246206053736387e+00,3.525210297513751811e+01,3.013074188988753122e+00
2.940089919402794294e+00,4.130322228489137615e+01,1.128363107292284440e+01
1.500077551864592351e+00,3.983349095864093670e+01,1.091309762183368548e+01
8.947977274920049240e-02,3.835354544572712143e+01,1.028772940096268940e+01
3.721285619411219159e+00,4.330673764821503369e+01,1.117904921952623454e+01
-1.430754621745109034e+00,3.702790544478429524e+01,9.452659582449314257e+00
5.337005144650731836e+00,4.451026284505205410e+01,1.073682952880972152e+01
-4.494388600544652945e+00,3.593888104855290067e+01,7.176377063684725499e+00
-2.984396909329461778e+00,3.542519165380576851e+01,8.436566772852074791e+00
-5.610818976547079728e+00,3.421656571255704193e+01,6.145589482124059089e+00
-8.469022482339141789e+00,3.385353879111676179e+01,1.487455293579841964e+00
-9.583320386980631156e+00,3.424425769651406881e+01,-1.961331728508866945e+00
-9.773648789926483005e+00,3.574701146295228682e+01,-3.752377755006534699e+00
-9.191462763658023505e+00,3.281254316613444644e+01,-2.015433961175290278e-01
-9.809053002195696536e+00,3.471225999328316902e+01,-5.677660396297255829e+00
-9.357567807796499437e+00,3.352306927700203687e+01,-7.615334572716790262e+00
-8.410979486992687271e+00,3.473448017750888539e+01,-9.227525589643335024e+00
-7.092146850241874745e+00,3.585004893409518445e+01,-1.055985960386692568e+01
-4.067647048008552702e+00,3.589330344637301096e+01,-1.235252604855395475e+01
-5.616021591450930828e+00,3.496488291069920251e+01,-1.171745314560303086e+01
-2.348422063670909665e+00,3.518726829793894240e+01,-1.296561532540459893e+01
-5.911914105784035200e-01,3.459849835848780231e+01,-1.334069561278113270e+01
1.508994985335334604e+00,3.434695179293873935e+01,-1.353252778157457215e+01
3.761225684033774996e+00,3.432516275335649425e+01,-1.352196961627737437e+01
6.067631959253674268e+00,3.437988068160450439e+01,-1.332139659428264622e+01
-1.209351789889467454e+00,2.072375792794173890e+02,-1.461479144591157819e+01
-3.112416151241006901e+00,2.080587738681417420e+02,-1.424101332538197084e+01
1.816346305303272857e+01,1.999832107252629783e+02,-9.305828706101692660e+00
1.642485731306175012e+01,2.008313170425748524e+02,-1.036249065866377350e+01
1.952047532102858440e+01,1.991300437132394734e+02,-8.339944418074992427e+00
2.134748432997037071e+01,1.980494669373231886e+02,-8.124874132107322566e-01
2.087818793326732703e+01,1.992235975894780609e+02,-7.277884187343374833e+00
2.182056756702365874e+01,2.001009919831650450e+02,-1.528702816999995662e+00
2.261759986527340516e+01,2.003546744260039532e+02,-3.536860991272174459e+00
2.250174027473121896e+01,2.006646605024818086e+02,-5.351788613379483195e+00
2.159365258998764148e+01,2.008551626214880912e+02,-6.680176542495928516e+00
1.773961609947921758e+01,1.957408443418789830e+02,2.311826100660837824e+00
1.830259549561054655e+01,1.980859513814521620e+02,1.958519044755973937e+00
1.988622334423928351e+01,1.980358862059628962e+02,7.588619281742978728e-01
7.107954152627200983e+00,2.046110873913259809e+02,-1.398769261889151494e+01
4.590292348409661827e+00,2.055300505865768059e+02,-1.452040465248819601e+01
2.571881221145474683e+00,2.069940774161159993e+02,-1.475233216567471572e+01
4.939865376806551467e-01,2.085810742140172920e+02,-1.479510365078715495e+01
1.493436826693721287e+01,2.025293388337473743e+02,-1.118098011136567038e+01
1.328204981496458004e+01,2.039848729942673913e+02,-1.194577238700708222e+01
1.121382162869372223e+01,2.037176554260368562e+02,-1.273032008885866162e+01
9.460284130384650325e+00,2.053257773505642660e+02,-1.333391807098860227e+01
-4.421727781979370775e+00,2.023644854130474471e+02,7.524131643046985118e-01
-2.085901333543006331e+00,2.011356843739513067e+02,3.207990217135829880e+00
-3.029779099861798386e+00,2.028345418930795176e+02,2.353884676193729319e+00
-5.870394233004390117e-01,2.001339421926729187e+02,4.263322177698228188e+00
-5.399535261184155388e+00,2.040208721914486034e+02,-6.233621633527945960e-01
-6.555176164495833291e+00,2.036940640358799612e+02,-2.851018904895227024e+00
1.758795016587100690e+00,1.997136852120321748e+02,5.292616013485485382e+00
-7.158565238525682162e+00,2.056676811215999976e+02,-4.163081494791413206e+00
-8.009365575830528883e+00,2.077450338938899677e+02,-7.498231351997446836e+00
-7.643646390434838622e+00,2.078151905915229634e+02,-5.377994064267795693e+00
-7.880463087425397362e+00,2.081931327177484263e+02,-9.737587866862213559e+00
-7.177752212959831013e+00,2.089975874099045541e+02,-1.153088922373990499e+01
-4.573911265795231884e+00,2.099250289137188759e+02,-1.377710703267498715e+01
-6.030976220696857126e+00,2.095000099678163963e+02,-1.292442961494725751e+01
1.217196871530563840e+01,1.953817809780037464e+02,3.999152719617313778e+00
9.178962685471333316e+00,1.992404062277868206e+02,4.417093810741107518e+00
1.107444138916321208e+01,1.979437033523715002e+02,4.123335762914848601e+00
5.467002975101422635e+00,1.999152852581863726e+02,5.424895492543100772e+00
7.403015436754230905e+00,2.008990562285936790e+02,4.906504681154274294e+00
3.695672767309133633e+00,2.010326685741445658e+02,5.574750362918621249e+00
1.414556221745999665e+01,1.955633017117784220e+02,3.695874873211892009e+00
1.584925487883793949e+01,1.957462966632642178e+02,3.213306766861506958e+00
8.409541751494202799e+00,3.369290792390756906e+01,-1.291048396060745063e+01
1.038736150641889822e+01,3.362481552209442270e+01,-1.205949295326240644e+01
1.210196144913652461e+01,3.330916471589341654e+01,-1.089804107046694526e+01
1.329977766341109913e+01,3.293753129229639853e+01,-9.381544645694589235e+00
1.095786713034897275e+01,4.171852525942932743e+01,6.659803262275715952e+00
9.616243368065340746e+00,4.270535069691254648e+01,8.252292987372925381e+00
8.117453212493849435e+00,4.374977890708674977e+01,9.425635847274271839e+00
6.745546016083949326e+00,4.293900031029736652e+01,1.024909977381963699e+01
1.207149427351839677e+01,4.095388866732440647e+01,4.908989515204382315e+00
1.379066138821929144e+01,3.805444016433705201e+01,6.569753805532627666e-01
1.317492106519705430e+01,3.993021758988822967e+01,2.473158092295591359e+00
1.421384961532243096e+01,3.630353375140964545e+01,-1.050948757065270911e+00
1.433653402398391563e+01,3.541497699749299954e+01,-4.829518522839578054e+00
1.422621409266989190e+01,3.397200384772122561e+01,-6.279199936497491308e+00
1.445595206195980609e+01,3.461218769734705347e+01,-2.713179171590127225e+00
1.403971936817006849e+01,3.241847549860744948e+01,-7.662956014832616347e+00
-6.695900535267696796e+00,3.251186232140469201e+01,4.916180735189087159e+00
-7.722306684082809625e+00,3.297346048790518580e+01,3.214774852818010231e+00
3.258716660229424633e+00,3.891263609316241201e+01,1.135487803276737395e+01
4.952095996437606118e+00,3.990813020625911633e+01,1.124234111498162747e+01
5.125055512629955956e+00,4.194896723877494082e+01,1.100574792981842620e+01
1.793960026464674229e+00,3.751434894280464505e+01,1.099445968643465221e+01
3.128092916072091612e-01,3.608693608643706341e+01,1.040419977115880101e+01
-1.330168469528416608e+00,3.497429204097011279e+01,9.549107042883065333e+00
-4.229356190881958355e+00,3.367327161398236512e+01,7.542445088803333419e+00
-2.623913845689457958e+00,3.327915003792523407e+01,8.805267931201569809e+00
-5.429445361876673815e+00,3.203439461022492196e+01,6.504895861424131454e+00
-8.606442085550384036e+00,3.147446638481005721e+01,1.568918234087561814e+00
-9.763881134881671642e+00,3.194680689927042749e+01,-2.143803568488635847e+00
-9.939634862798698123e+00,3.333041992135292730e+01,-3.880034344211253483e+00
-9.463535964067546047e+00,3.064183534756898553e+01,-6.091267793284487198e-01
-9.915795630711045305e+00,3.223217693949993645e+01,-5.766518836475540866e+00
-8.459328689264907553e+00,3.237200482713228666e+01,-9.445452985986435124e+00
-9.490655937054498281e+00,3.115957783530291181e+01,-7.688086728809707893e+00
-7.139697212915621094e+00,3.351143113347905000e+01,-1.078045100343098284e+01
-3.796531447501934053e+00,3.374151870545102838e+01,-1.268287156180969077e+01
-5.559378514725494824e+00,3.286465701761198943e+01,-1.199358466856182304e+01
-1.863178586057415487e+00,3.265631174603731779e+01,-1.334771675778790723e+01
3.396877401929714324e-01,3.248112828813839315e+01,-1.369962329343286456e+01
2.669798554824865278e+00,3.228951885107164799e+01,-1.382042590883554567e+01
4.919750395753112571e+00,3.228924212186370823e+01,-1.374235341901191987e+01
7.082272902781795665e+00,3.208869612575756491e+01,-1.351038221487840474e+01
-1.375744245341479655e+00,2.096056264539345477e+02,-1.463702174223135444e+01
-3.058510625277847339e+00,2.107145015130400338e+02,-1.432196698260344192e+01
2.004218934900222848e+01,2.011721468439786520e+02,-8.060726077622803132e+00
1.836052138749442975e+01,2.021731801091558509e+02,-9.274677481983189864e+00
1.685176751197343492e+01,2.033133253524143811e+02,-1.020926579296315140e+01
2.039323166594260783e+01,2.001454003621002755e+02,2.839653489498061845e-01
2.225675687076432041e+01,2.022017699218899907e+02,-2.386151636910867069e+00
