-3.225419497718817752e-01,2.440699357918515489e+02,9.523982849364021064e+00
1.603573009461889853e+00,2.440385618477280616e+02,1.012783162121115765e+01
3.571697117199263971e+00,2.440799518069614180e+02,1.029290262622887298e+01
-1.281754567778651932e+00,2.460381271130844709e+02,9.136155178242162833e+00
-3.119299402310954150e+00,2.463473508650365886e+02,7.838628459770500712e+00
-3.766933713178277188e+00,2.486555225310034984e+02,7.364816830750438470e+00
-5.230623942063603593e+00,2.497232471688337228e+02,5.967686782866588935e+00
-8.999046090857465430e+00,2.538498604104112530e+02,-8.362241449097620460e+00
-6.992944569410424194e+00,2.504853902102443612e+02,3.890564576945901187e+00
-8.128049103237255935e+00,2.520669874505321104e+02,2.283542862276704888e+00
-9.402161827669306859e+00,2.531633316840763257e+02,-1.134157773813780246e+00
-8.889808645923501729e+00,2.537687518855731241e+02,7.587137965855301758e-01
-9.641745344435985743e+00,2.542852488503512802e+02,-4.882331475657894160e+00
-9.374009293283107169e+00,2.553572229955433954e+02,-6.885386506534839413e+00
-9.644014198721027498e+00,2.549008895372484744e+02,-2.648175128791401711e+00
-8.076557727124328068e+00,2.545680073132533323e+02,-1.058760521646013331e+01
-6.687689532066794840e+00,2.545673843561606304e+02,-1.282611441626039905e+01
-5.105092781612903252e+00,2.545335445566133501e+02,-1.467755758006233435e+01
5.780611971464807652e+00,2.443266558525026539e+02,9.914679002794350993e+00
8.159515943830285778e+00,2.445536852128393548e+02,8.849551910103038210e+00
1.052316282011865667e+01,2.449711264263581256e+02,7.744357856976684218e+00
1.453733748672662074e+01,-6.195783374912467778e+00,-2.193679996979754776e+01
1.594733451353106446e+01,-6.879964431571218064e+00,-2.052723227169905584e+01
1.725875646534604613e+01,-7.558035688570773125e+00,-1.859054814607067030e+01
1.833113516587014757e+01,-7.842460969225324874e+00,-1.642177353901309900e+01
2.071892848919839736e+01,-9.399514143554423384e+00,-7.635909482614771093e+00
2.063283152088760275e+01,-8.277926001849607474e+00,-5.653398820154912130e+00
2.058146690747760843e+01,-1.063334356172195783e+01,-9.500000408391109374e+00
2.006321297791619429e+01,-9.777541381342176763e+00,-1.172070783044511444e+01
1.932065280316830425e+01,-8.913242930770913119e+00,-1.390092808749021103e+01
2.076568175993637766e+01,-8.993501389507153831e+00,-3.246262771594224716e+00
2.082948438390260293e+01,-9.681679605695498125e+00,-9.014514538464055704e-01
1.158250809649003799e+01,-1.778919594153812511e+00,1.748529956687890419e+01
1.009350338801619174e+01,-8.110509520301860675e-01,1.714607063283343891e+01
2.055631466908246452e+01,-8.737851968083482745e+00,5.201925420280076651e+00
2.076775958987139248e+01,-9.693603601506488587e+00,3.280209501743868827e+00
2.095062073745692999e+01,-1.072706356056354871e+01,1.381247844889657017e+00
1.993685436916590348e+01,-7.440148072833876469e+00,9.738458077805937307e+00
2.064256275584307332e+01,-8.844370283179236125e+00,8.693739581353867152e+00
2.097601087657344010e+01,-1.000513799765689527e+01,7.042231612921057149e+00
1.962543185161529635e+01,-7.557945785155721907e+00,1.134837735203490894e+01
1.762007446848677006e+01,-6.378895887058281033e+00,1.421096034427403865e+01
1.901112461345221050e+01,-7.794092708314195761e+00,1.307487551681504101e+01
1.661195565651127026e+01,-6.811275681831073570e+00,1.613404797993461415e+01
1.474589248666700669e+01,-5.099778432536258066e+00,1.709217932536608942e+01
1.306854817173805827e+01,-3.314912250775286395e+00,1.746443077476965300e+01
-2.317113218438187516e+00,-9.965927793792927147e+00,1.278970301733044224e+01
-5.826626050778582311e+00,-8.396550674696666050e+00,1.254524346246988209e+01
-4.330360437031860243e+00,-1.051219834093848782e+01,1.275988650882145237e+01
9.603404926956649490e+00,-2.654045586078929375e+00,1.817853865788373824e+01
7.896755470662945697e+00,-3.937646914625460681e+00,1.695429012875268882e+01
7.048992560755571901e+00,-5.915087427641914530e+00,1.610709280995614989e+01
5.894129355622204969e+00,-7.275437210397658561e+00,1.503569697570480201e+01
4.519724134308816588e+00,-8.763715352866029207e+00,1.421457709661720159e+01
2.972037885454973605e+00,-9.904131449371693208e+00,1.357498743251070472e+01
1.213080733810699030e+00,-1.096384134685621170e+01,1.321972216774471320e+01
-6.840141229199687700e-01,-1.168393685899094692e+01,1.304104918759519904e+01
-1.607882781150868112e+01,-1.037617326935765050e+01,4.492706022333933902e+00
-1.556852739566207333e+01,-8.890175183719872365e+00,6.902578149877619751e+00
-1.600821568719650401e+01,-1.059001808941509637e+01,6.066800020535257687e+00
-1.530445852420589858e+01,-8.530757109364103030e+00,8.833511111505192304e+00
-1.472019799873168466e+01,-8.526787642235984066e+00,1.110179999427719011e+01
-9.278034562015612607e+00,-7.420331893795300893e+00,1.307345936764929384e+01
-1.091436551804725141e+01,-6.845683107878675955e+00,1.299416731932159941e+01
-7.681913108570036286e+00,-7.994794256105307362e+00,1.279272677897751542e+01
-1.223445081069298723e+01,-7.907919851410438739e+00,1.329224855744591238e+01
-1.363541890534971657e+01,-9.174250269745167330e+00,1.312892927338359783e+01
-1.675874218058515197e+01,-1.261172934067750617e+01,1.690237449366691180e+00
-1.691706280464948264e+01,-1.249984991192336992e+01,3.827428935088406092e-02
-1.709190363670794000e+01,-1.344185585314528453e+01,-1.597110512268141491e+00
-1.657778708880820062e+01,-1.258220125056257643e+01,3.465034474575329426e+00
-1.714148692753366277e+01,-1.429073200802026378e+01,-3.361128395870416341e+00
-1.704556803432690515e+01,-1.547347295885408869e+01,-4.880492583098607895e+00
-1.664738197813869647e+01,-1.456619633999976315e+01,-8.023096911890792882e+00
-1.677683748171678602e+01,-1.656330179424281113e+01,-6.385403145482055898e+00
-1.625253294860552344e+01,-1.406447228491319379e+01,-9.769652956277866451e+00
-1.581335613704985477e+01,-1.435335340691977279e+01,-1.148242684087825438e+01
-1.478484006503637715e+01,-9.789559734833414240e+00,-1.640240435745827341e+01
-1.498177897479348175e+01,-1.211553876047273093e+01,-1.494474079417737755e+01
-1.537475827588233557e+01,-1.440051572245908673e+01,-1.332860251298692233e+01
-1.458276042199750933e+01,-9.156380365723061132e+00,-1.866578033771596878e+01
-1.407926677078875599e+01,-6.968733337173048881e+00,-1.941122568541596038e+01
-1.300917451371409150e+01,-6.813640686777217681e+00,-2.046968628162664317e+01
-1.160828180336342363e+01,-6.907344809463117130e+00,-2.138066484463104189e+01
-1.124886775645248349e+01,-8.405017272221405378e+00,-2.263131326757182649e+01
-9.788726113879071988e+00,-8.497737889562634095e+00,-2.358606595273077389e+01
-8.411760883474372008e+00,-8.943897815262307205e+00,-2.470729835810474739e+01
-2.437796357469743214e+00,-6.144320278567711568e+00,-2.526575519770173273e+01
-4.252185153859493028e+00,-7.108388754769512374e+00,-2.542104513814825495e+01
-5.776032476810541993e-01,-5.533093593806420074e+00,-2.506776992863463960e+01
1.680613060883437981e+00,-5.717774290643585999e+00,-2.522134420220167783e+01
4.000307759309059463e+00,-5.876841767160710717e+00,-2.521221207215823767e+01
6.201812860584951181e+00,-6.205482059487463786e+00,-2.513036189091592476e+01
-5.755128329355059691e+00,-8.275414350152262344e+00,-2.555409274796441110e+01
-6.965157394462895724e+00,-9.540297135614750346e+00,-2.575765229226663777e+01
8.213265157678392825e+00,-6.985076128885889801e+00,-2.517458711561042861e+01
9.507576639423426457e+00,-5.774630485616002673e+00,-2.429061722693008818e+01
1.149166862274906009e+01,-6.714320470068338764e+00,-2.404851421736260519e+01
1.345982397043454881e+01,-7.520142135721593846e+00,-2.320082231776740400e+01
1.741246608936281604e+01,2.437219542365907614e+02,5.357089169184945376e+00
1.955717455457371656e+01,2.438792829212362108e+02,4.657083575059729696e+00
2.165150018747981164e+01,2.444934277495742379e+02,3.452248076906620611e+00
1.315297644554996737e+01,2.454155121703195448e+02,6.728771733314594883e+00
1.574385656366459330e+01,2.456669227094722601e+02,5.935600520759244603e+00
2.355179709276453082e+01,2.449246439932237251e+02,1.706923374266693827e+00
2.496507327865481685e+01,2.453768410288549262e+02,-4.442454116296019606e-01
2.565495315246831964e+01,2.459857644688184735e+02,-2.862261204330327047e+00
2.543717026164626560e+01,2.465729184278707180e+02,-5.335748565005303590e+00
1.882478207823513117e+01,2.513166483382731826e+02,-1.174665333189878602e+01
1.718136145468933762e+01,2.521033202293544946e+02,-1.273514738193807894e+01
2.050258987391877952e+01,2.505589185616429120e+02,-1.064611041937154390e+01
2.212436013815995395e+01,2.498740816270388336e+02,-9.454586010320976897e+00
1.549707162862118714e+01,2.530501850544059721e+02,-1.366344497749928166e+01
1.358337609571432836e+01,2.538259396812356954e+02,-1.461870336107179114e+01
3.172305238359452773e+00,2.539009943351807124e+02,-1.762592323355127633e+01
1.221786917709497544e+00,2.541330187225845236e+02,-1.762032886607472904e+01
-6.623365842541417692e-01,2.552248421873820519e+02,-1.735179969967802549e+01
-2.125160539643420776e+00,2.544552277020054021e+02,-1.680502147271176483e+01
1.165488690164603369e+01,2.545241128926134024e+02,-1.549201495365051073e+01
9.679440835620360062e+00,2.551241127664256396e+02,-1.626129221322026197e+01
7.857501171467871970e+00,2.560315981692688752e+02,-1.686297905194874147e+01
4.582450331945754129e+00,2.557108720739628325e+02,-1.754220091335992393e+01
5.997141584075957432e+00,2.570305354972461487e+02,-1.732655687247918763e+01
-3.586488341051492057e+00,2.553954509591096951e+02,-1.602640747916877118e+01
2.520057095971916539e+01,2.487433149682888143e+02,-6.044225257237988203e+00
2.378133391480610115e+01,2.493329581191070190e+02,-7.981784047467801457e+00
6.996722150236642790e-01,2.462131187503290164e+02,9.998913598176997652e+00
2.501069416708105564e+00,2.462403811465388799e+02,1.036792456637135729e+01
4.578162841771543867e+00,2.462052058697545363e+02,1.034221474406884766e+01
-2.076315040910195364e+00,2.481211983431922761e+02,8.720233685004700419e+00
-1.659982652360945110e-01,2.481244201649605259e+02,9.752735812113719760e+00
-4.111962914288159965e+00,2.512667714305463846e+02,7.164215158002214423e+00
-2.620594828432111001e+00,2.504357404133588716e+02,8.415253675220100149e+00
-5.723505285590645641e+00,2.519340484548548886e+02,5.536889175815757014e+00
-8.782610865515609433e+00,2.564097510464295624e+02,-9.028551004926915979e+00
-7.043491223380930144e+00,2.529882626251422550e+02,3.971536980319653853e+00
-8.120022372608845629e+00,2.545487627778923638e+02,2.441969500071204280e+00
-9.361312242075628731e+00,2.556684798635550919e+02,-7.192057036251304769e-01
-8.856028987892809567e+00,2.563833340306596824e+02,9.871836488084975159e-01
-9.689697553628736415e+00,2.565673956031730540e+02,-4.634370173144961136e+00
-9.448737708278814651e+00,2.577047930540471157e+02,-6.637993649752305103e+00
-9.688864620949424022e+00,2.574157385197755730e+02,-2.414131355509571364e+00
-7.606797812200978726e+00,2.565861538775046711e+02,-1.151507144668515537e+01
-6.111033789200799760e+00,2.566711966792365160e+02,-1.359126881755867089e+01
-4.522033233593013790e+00,2.568764380421625901e+02,-1.525889820169384237e+01
6.907351129780693100e+00,2.463995675333125348e+02,9.631782412823667983e+00
9.163551696437011174e+00,2.467858093591381703e+02,8.561428606747846004e+00
1.164761219070860676e+01,2.471772521569291428e+02,7.414408954090163206e+00
1.509387649749457339e+01,-8.330006741321842156e+00,-2.184337054087470875e+01
1.640139016893665769e+01,-9.118049009190407617e+00,-1.984200173265260858e+01
1.755214320803299088e+01,-9.833330715757384155e+00,-1.763220106170206236e+01
1.853058304938846845e+01,-1.022738162755456948e+01,-1.553159893199790531e+01
2.092959386965173962e+01,-1.080748804785058326e+01,-5.195194781455548139e+00
2.076988934991642211e+01,-1.182008633547516041e+01,-7.144140673715725143e+00
2.029916971353936006e+01,-1.302522413047085692e+01,-8.952685576122625832e+00
1.996676155869697666e+01,-1.219008169074053960e+01,-1.123903191855135475e+01
1.930536415592699484e+01,-1.135760510256352163e+01,-1.345439039675281379e+01
2.101839259550107641e+01,-1.153590484857533127e+01,-2.820492375802309937e+00
2.107035196807748179e+01,-1.225192478154131592e+01,-4.602989972212299108e-01
1.143993841405501044e+01,-3.675259590463525683e+00,1.901176723959487092e+01
2.113553568465410137e+01,-1.113344242091595504e+01,5.312402254627883735e+00
2.122580163779689855e+01,-1.220711785010310280e+01,3.632190388771391554e+00
2.118856421946807345e+01,-1.296073000397440822e+01,1.740834284744138927e+00
2.065150111880115702e+01,-9.436684718478701939e+00,1.045399301182801821e+01
2.119711914182419932e+01,-1.085072137088399558e+01,8.902567628152425527e+00
2.145605257498656471e+01,-1.239240524937504873e+01,7.048565558188357727e+00
2.023277883789147680e+01,-9.516607976005108327e+00,1.206747026950067436e+01
1.823266492352433588e+01,-8.339291934608464629e+00,1.488316925692389603e+01
1.955503850749711248e+01,-9.789260773147912431e+00,1.373794541577665740e+01
1.691631442804371588e+01,-8.905530253779247118e+00,1.694254850359187614e+01
1.504792082657102270e+01,-7.173071196824373885e+00,1.822947447914093289e+01
1.315488618935463450e+01,-5.306110841809378087e+00,1.898301991294348312e+01
-2.743180653569531557e+00,-1.227596460342228468e+01,1.299026222406721587e+01
-6.455345294285365298e+00,-1.038688115227641795e+01,1.288455002105735758e+01
-5.040626116388921218e+00,-1.264394357114770173e+01,1.297541705299437709e+01
9.499414093099879608e+00,-4.912867483270133562e+00,1.902174168472734550e+01
8.388498825440898088e+00,-6.625634345055914309e+00,1.768568848970088325e+01
7.383524847143156933e+00,-8.353839882672181361e+00,1.636699931197182067e+01
6.029173173433783006e+00,-9.721544713319310915e+00,1.516145909210367293e+01
4.544011765592863128e+00,-1.112587006834427683e+01,1.427201822065059211e+01
2.852680135894978264e+00,-1.232731001172944119e+01,1.357537289743302189e+01
9.849289499662461367e-01,-1.344905666101312924e+01,1.327765499422445217e+01
-1.047626610393479041e+00,-1.390812874529342835e+01,1.314747390553077722e+01
-1.641984556803800643e+01,-1.260309664255485274e+01,5.294383100183711832e+00
-1.597207657355782118e+01,-1.054409434173148341e+01,8.037227554342642577e+00
-1.635400438532493439e+01,-1.251739244080748747e+01,7.274193789216294448e+00
-1.565431038658011076e+01,-1.031178501876616238e+01,1.015863902534903751e+01
-1.493783344205658281e+01,-1.067282198136204663e+01,1.237023331466865983e+01
-1.031910319945141197e+01,-9.303828318589136614e+00,1.371513850528541845e+01
-8.445900455125201489e+00,-1.009950385710572363e+01,1.331903895466348331e+01
-1.180018870751478133e+01,-1.052205763826318830e+01,1.413866662792294093e+01
-1.359594641025503492e+01,-1.176268769199878506e+01,1.396628971774963190e+01
-1.710911241027275054e+01,-1.491996304210697133e+01,2.066220970581298388e-01
-1.697291376394070994e+01,-1.484890980291860529e+01,2.158752359701669121e+00
-1.716152683704776649e+01,-1.593388015348157438e+01,-1.774465493426690799e+00
-1.683665997497496392e+01,-1.465112205433771209e+01,4.199654847969746641e+00
-1.699855291772583854e+01,-1.728948931734878158e+01,-3.339407007416794748e+00
-1.666195196264701650e+01,-1.849580566048925334e+01,-4.841039758592671660e+00
-1.631384042759021114e+01,-1.638916092438602590e+01,-9.480282369976842816e+00
-1.643000160361139095e+01,-1.767311227882673563e+01,-7.854933907558262263e+00
-1.621599934916321217e+01,-1.951981136875581768e+01,-6.287607486071653540e+00
-1.586177497527181224e+01,-1.680770021145777093e+01,-1.141953096640847143e+01
-1.469614001412053739e+01,-1.209351115933168863e+01,-1.728355363683124679e+01
-1.495982067759144130e+01,-1.460391183285814876e+01,-1.527275510067481967e+01
-1.538285937745041210e+01,-1.673548849389709403e+01,-1.345889532554617674e+01
-1.439490830242431585e+01,-1.121473685037716095e+01,-1.965812895213247913e+01
-1.397446941016549715e+01,-8.845975803879408517e+00,-2.076185114745334204e+01
-1.277219634455469333e+01,-8.370983983592038769e+00,-2.166910875266818692e+01
-1.101275319032696842e+01,-1.013047785508219434e+01,-2.388501613899448017e+01
-1.253232348650268335e+01,-9.931213679356089230e+00,-2.271867905065139581e+01
-9.576072435099391100e+00,-1.040183093404166925e+01,-2.499184340800144355e+01
-8.085341376013204240e+00,-1.087607688860009247e+01,-2.608987045488146350e+01
-2.250409027557445540e+00,-7.844745407542509597e+00,-2.620654470438446637e+01
7.675735208446354818e-02,-7.142315457077229368e+00,-2.604405793603645591e+01
-3.959904818400083570e+00,-8.985677084786409807e+00,-2.647076064934138628e+01
2.616322940346776704e+00,-7.429999433983227597e+00,-2.615893371732624928e+01
4.940247762031958700e+00,-7.785505999207977368e+00,-2.611579071795974372e+01
7.021951369430269096e+00,-8.438040158275263991e+00,-2.609241942560652561e+01
-5.305649178052846082e+00,-1.016919753696165429e+01,-2.671546511656825373e+01
-6.503768598425988756e+00,-1.148398185324290210e+01,-2.707858285473111337e+01
9.047707881398011409e+00,-9.264703600611802869e+00,-2.599711568661918903e+01
1.028028148106400863e+01,-7.967598160669824736e+00,-2.504257985203858539e+01
1.227979000677663635e+01,-8.805905788624869501e+00,-2.439474083467556653e+01
1.393927571211125382e+01,-9.575981872721493815e+00,-2.322208606487668092e+01
1.813871985100857387e+01,2.459593170500375265e+02,5.275065359004251775e+00
2.031495499945624417e+01,2.463853483412449066e+02,4.372293214677675621e+00
2.239901856351319864e+01,2.468155298345404560e+02,3.018498273209516469e+00
1.426260494171278737e+01,2.475122072927800616e+02,6.452534252035249551e+00
1.675886243334992542e+01,2.478227467985213934e+02,5.707960891878713028e+00
2.416923755520696204e+01,2.471651848241376399e+02,1.188896137280700316e+00
2.538374273700976147e+01,2.476666324262060073e+02,-9.836985708963581487e-01
2.582904124343281893e+01,2.481493904951570073e+02,-3.505849850772563059e+00
2.008960044602805084e+01,2.527948891844439174e+02,-1.098012752242055790e+01
1.848928043246784725e+01,2.536551632375089866e+02,-1.201997724178908200e+01
1.696599847108604564e+01,2.544906139338126536e+02,-1.290661241060157494e+01
2.170324845708825734e+01,2.521843366153060231e+02,-9.833381526978842047e+00
2.326349263727597361e+01,2.514219957485026384e+02,-8.531565324070758294e+00
1.517338203493957138e+01,2.553342350621877870e+02,-1.388468730533061546e+01
1.333896350249842655e+01,2.560615666679103697e+02,-1.477606443933922087e+01
2.773769058577013169e+00,2.561455209546920742e+02,-1.769012619920856011e+01
9.563127274184850535e-01,2.562622444871468019e+02,-1.764251536803625342e+01
-5.269575761374483136e-01,2.577276545942116286e+02,-1.745518753270261669e+01
-2.272687338034494076e+00,2.569487654655436586e+02,-1.682985011220685223e+01
1.132168343336425664e+01,2.567089770948261389e+02,-1.566624367567722764e+01
9.423515422583594869e+00,2.574918300773081796e+02,-1.639623407580829451e+01
7.554297145252089507e+00,2.584307408739397260e+02,-1.699973427402742132e+01
3.893972545768825455e+00,2.581073459296661667e+02,-1.766266056363087245e+01
5.708503638998497109e+00,2.592529321408796932e+02,-1.743283293908272569e+01
2.490717462488015954e+01,2.509975315075622291e+02,-6.663833129915474274e+00
2.589400857304752890e+01,2.502507036391966153e+02,-4.230857072445129319e+00
1.586765703896304558e+00,2.486045008744268330e+02,1.033373434328724016e+01
3.452641981292586593e+00,2.482213666414997988e+02,1.049933898322874626e+01
5.706179597075916377e+00,2.481717287124182860e+02,1.016610454447818768e+01
-9.835266918484499854e-01,2.499327008261599303e+02,9.444671536345307317e+00
6.562765433014163818e-01,2.507408735158154798e+02,1.013990952988697103e+01
-4.414728428507668667e+00,2.535526422081627516e+02,7.004071573165147058e+00
-2.838240768781705725e+00,2.527998935720470399e+02,8.337981953051222916e+00
-1.225246131612280465e+00,2.520308803966684934e+02,9.396484343381690252e+00
-5.823179731678804316e+00,2.542972454055314984e+02,5.560074196922791145e+00
-8.233511249204713778e+00,2.584469384506216443e+02,-1.030962012588329735e+01
-9.023838769049588038e+00,2.589191750819315985e+02,-8.248644057899051418e+00
-7.061696322134393355e+00,2.554299525611251056e+02,4.076584875793272111e+00
-8.085217752201968366e+00,2.570447882580458554e+02,2.648863244920750759e+00
-9.334369244745840177e+00,2.582234511604690965e+02,-4.228752154348224268e-01
-8.732344616978334528e+00,2.590103318692574703e+02,1.395031901320031409e+00
-9.732063783467353346e+00,2.589711762789495424e+02,-4.496679513932143379e+00
-9.419644599574484189e+00,2.605349426613559558e+02,-6.522986180917193622e+00
-9.703370677576671710e+00,2.598888157490466710e+02,-2.080990617867223058e+00
-6.935845922196779867e+00,2.588139659271211031e+02,-1.254938743927970535e+01
-5.376825973349074417e+00,2.588149121078364487e+02,-1.447382211484463710e+01
-3.529150074066208731e+00,2.586605267631745164e+02,-1.613104609175131898e+01
7.858323362789043642e+00,2.485945324268756167e+02,9.346022164471413873e+00
1.014544607552163313e+01,2.490133286680424192e+02,8.257747734309852206e+00
1.270973692595844540e+01,2.493126246792072038e+02,7.142233753997899726e+00
1.529129505690713486e+01,-1.036098533257952425e+01,-2.153762079397450080e+01
1.630823911336587173e+01,-1.127442263079271179e+01,-1.953835765522456924e+01
1.722978207692291619e+01,-1.193620343613030599e+01,-1.751601260537245253e+01
1.816335168100891195e+01,-1.255610593938591713e+01,-1.534120818239457584e+01
2.078098554461638514e+01,-1.330385129355471108e+01,-4.479534963618391430e+00
2.038049967478113444e+01,-1.387796572782402649e+01,-6.582405052817584590e+00
1.956087953011940073e+01,-1.516907708308774616e+01,-8.164266528255708977e+00
1.924732804748022374e+01,-1.444288421546563228e+01,-1.056088623912125257e+01
1.878713829564966176e+01,-1.362517229033637101e+01,-1.293416774062752239e+01
2.090982783244044185e+01,-1.383633605419535684e+01,-1.961605806031606392e+00
2.104347875477964891e+01,-1.448317780677123601e+01,5.342533704315286514e-01
1.137851718615901575e+01,-6.019978457373163394e+00,2.009146022517152019e+01
2.147610668871596218e+01,-1.371738609664220299e+01,5.281144767951289509e+00
2.129316581188326296e+01,-1.460996810497905152e+01,3.060270616645993869e+00
2.105586524202175269e+01,-1.143378222771224983e+01,1.065813065777467727e+01
2.142292828854496278e+01,-1.287969909346833042e+01,8.837100688243452851e+00
2.144679489672186179e+01,-1.486283603253747287e+01,7.279785454072197126e+00
2.043742003882321967e+01,-1.145571589759465780e+01,1.261172787767038983e+01
1.843361708071162397e+01,-1.036702433818920355e+01,1.556595446277363948e+01
1.947372809755793810e+01,-1.192254312466646837e+01,1.437492479489807806e+01
1.520618212529257818e+01,-9.311748646375669125e+00,1.881504892573463650e+01
1.680782220465075127e+01,-1.106075987143425721e+01,1.748319059052990099e+01
1.330822114587235916e+01,-7.505779006552671717e+00,1.981708984137742391e+01
-3.457983743578367353e+00,-1.432331913689180780e+01,1.310359905148562731e+01
-7.134171655479494945e+00,-1.242982774905196308e+01,1.322276857703851860e+01
-5.582389612201183127e+00,-1.507378692197548631e+01,1.319436950416571719e+01
9.753534152296058579e+00,-7.373405349756254168e+00,1.932852416561827980e+01
9.019636229669838912e+00,-9.277521127258548717e+00,1.789131873777380122e+01
7.559994779408881982e+00,-1.075623913487823202e+01,1.626329198784394237e+01
6.056381504764026147e+00,-1.222316563628540287e+01,1.511040268479549376e+01
4.484073706180360830e+00,-1.362374307596203948e+01,1.412617112165238353e+01
2.587834382770523689e+00,-1.484990713324726030e+01,1.337070684834788281e+01
3.754511175252588373e-01,-1.609104683264146374e+01,1.303814887439969894e+01
-1.788345695218531262e+00,-1.578302846510030477e+01,1.318864328591666357e+01
-1.672312685814923583e+01,-1.449643241595607890e+01,6.379584043978777430e+00
-1.630249802140647830e+01,-1.242117964865507673e+01,9.316892437044536734e+00
-1.666180463707020465e+01,-1.444726249711034072e+01,8.685733074987163960e+00
-1.593940233872429957e+01,-1.225853943975134186e+01,1.129212161156439187e+01
-1.521512583510296324e+01,-1.328139772528966134e+01,1.309532650954072430e+01
-9.596967249554708701e+00,-1.214661679954992302e+01,1.378613248129289204e+01
-1.149810631131210670e+01,-1.338161762695355073e+01,1.422684355473457529e+01
-1.333979237273345575e+01,-1.468371093567113306e+01,1.407511800931079549e+01
-1.712118091106227524e+01,-1.725979720677525364e+01,1.286582998518728260e+00
-1.710865121868290828e+01,-1.732839067606813188e+01,-3.915479955809892942e-01
-1.710875237161351237e+01,-1.678835920837833129e+01,3.206338167598165256e+00
-1.687853572838220373e+01,-1.877626680406800119e+01,-1.778740679761382282e+00
-1.702100606614042988e+01,-1.652319904319978860e+01,5.306540132475795701e+00
-1.638981813673085242e+01,-2.009842378999316281e+01,-3.237148659322470756e+00
-1.572086977917939521e+01,-2.125695614005833534e+01,-4.704511840927047217e+00
-1.590281013468789695e+01,-1.879657810524739858e+01,-9.860249867653980260e+00
-1.573116423185549095e+01,-2.028154763403642136e+01,-8.064719518066178594e+00
-1.509577314438750051e+01,-2.199867284128768574e+01,-6.338926665693078277e+00
-1.542951647525167225e+01,-1.934523111636123360e+01,-1.200771612309783087e+01
-1.462969622368599332e+01,-1.507802145529094417e+01,-1.709380663737361417e+01
-1.432229615651098875e+01,-1.426259955357982001e+01,-1.890598789875384256e+01
-1.487178625274155408e+01,-1.708751866748825776e+01,-1.571177192161076519e+01
-1.515035939811847854e+01,-1.874074038491020389e+01,-1.413688524886382325e+01
-1.393907460542451204e+01,-1.341786247332590420e+01,-2.095304588804687995e+01
-1.364106955767640628e+01,-1.086928527791434540e+01,-2.183121976742127757e+01
-1.222235505855559978e+01,-1.168097635338406626e+01,-2.373095358738736849e+01
-1.078579779854503684e+01,-1.202224017614774709e+01,-2.515142317847780618e+01
-9.341824273750670926e+00,-1.237569607435406382e+01,-2.640110508435457604e+01
-7.781901416963354023e+00,-1.282711362363141916e+01,-2.741517327590793940e+01
-2.086313938567208481e+00,-9.817301293471222934e+00,-2.733372303686217109e+01
-4.653675461928159507e-01,-8.753307408742029949e+00,-2.690854311340156713e+01
1.553633734341090644e+00,-8.959805536689996686e+00,-2.703899657238021703e+01
-3.528200039418159406e+00,-1.100293422330117465e+01,-2.771027098002383937e+01
3.706851530394523309e+00,-9.316782641786195640e+00,-2.702736947166878778e+01
5.774250842996437427e+00,-9.905861970765649005e+00,-2.698727025011985248e+01
7.873156862879795881e+00,-1.068458766254059356e+01,-2.691942602191061695e+01
-4.801235265156293508e+00,-1.217330970673453017e+01,-2.793440820463364105e+01
-6.051393090098784455e+00,-1.350204527897816043e+01,-2.823644334582403914e+01
9.964334950791368328e+00,-1.147790699819891991e+01,-2.651336261565604957e+01
1.111033957086080193e+01,-1.012408503223052492e+01,-2.549987034390831653e+01
1.289287354629084348e+01,-1.086181483447099794e+01,-2.443287592871317315e+01
1.428672244237688460e+01,-1.162972889176407598e+01,-2.284618843468627958e+01
1.905619744440936003e+01,2.483491237022671214e+02,5.068026500886318786e+00
2.122171066361214287e+01,2.487966734738052139e+02,4.046721987998864734e+00
2.330469049517530067e+01,2.491064170495093890e+02,2.432460397876511138e+00
1.527510889150969575e+01,2.496424809289869415e+02,6.231281416364971903e+00
1.764577110821683803e+01,2.501243727354649877e+02,5.589371990254626610e+00
2.486425276230369974e+01,2.495155356364821841e+02,4.779943180858694518e-01
2.580333536913110848e+01,2.498932748296265913e+02,-1.749112822840366732e+00
1.966663663591413780e+01,2.550103264918517141e+02,-1.132024356533704257e+01
2.120891431920989589e+01,2.545972649240295027e+02,-1.026829474547361443e+01
1.837303582465733598e+01,2.563368424375150880e+02,-1.214986700175319179e+01
1.668816746319864919e+01,2.566123379839460199e+02,-1.311168479877402859e+01
2.275738968672700935e+01,2.538460512111886658e+02,-9.066833307826172472e+00
2.423045218812441703e+01,2.529898800252347542e+02,-7.655706463417294216e+00
1.501324987694574276e+01,2.577115119095043383e+02,-1.401426986409339293e+01
1.291980263572828491e+01,2.581939126489703540e+02,-1.502154409743753405e+01
1.679827795932684609e+00,2.582400713769931713e+02,-1.774383670701546123e+01
-1.858640595105896409e+00,2.594073617659166757e+02,-1.709876485108127042e+01
9.383624530439149680e-02,2.599523743874718207e+02,-1.765614211815722001e+01
1.098896215986990654e+01,2.590122483659096133e+02,-1.585278767196481020e+01
9.079687147237647693e+00,2.598655608668445325e+02,-1.656281517723464702e+01
7.244616946408801716e+00,2.608275546432274723e+02,-1.711897257654246118e+01
3.953796095146746126e+00,2.604896453155379845e+02,-1.772180385742686326e+01
2.182000655030655878e+00,2.602988297106413711e+02,-1.781214507384664003e+01
5.463345940831663583e+00,2.616150094675823539e+02,-1.753692420059624624e+01
2.587476570736328441e+01,2.523163059388799354e+02,-4.823314872532190378e+00
2.537092480135169836e+01,2.538897677230709462e+02,-6.170063331949398489e+00
2.609865292791606350e+01,2.521094558745050165e+02,-2.372874594619403865e+00
2.767751757659731027e+00,2.507455985641560119e+02,1.057984217065840227e+01
4.601673766640317353e+00,2.499842368727954636e+02,1.050515989100541248e+01
6.581455355595679180e+00,2.504540421064893962e+02,1.000993532853530610e+01
2.057297012277174986e-01,2.532480270858330584e+02,1.008074286503811123e+01
1.860797006521679009e+00,2.525826332392257996e+02,1.056197081360394208e+01
-3.042777612937545229e+00,2.551151955203684736e+02,8.322673994358847693e+00
-4.491506618285079355e+00,2.559062532723380912e+02,7.083114758923708010e+00
-1.478421808986297492e+00,2.543030061498087377e+02,9.362263188144414272e+00
-5.869456423070294804e+00,2.566491093643703039e+02,5.648421679657109173e+00
-8.742737006298952451e+00,2.608270022298099775e+02,-9.058753850604277957e+00
-7.770004627712118861e+00,2.605832172933594393e+02,-1.128521576609799126e+01
-7.099443671548708146e+00,2.578364886199162243e+02,4.214899464549215935e+00
-7.872972660866205175e+00,2.595867032109445631e+02,3.158167367302126660e+00
-9.309717573687155578e+00,2.607571384559312833e+02,-1.267431673587340046e-01
-8.700399203264090886e+00,2.615088182807456860e+02,1.666785294347852719e+00
-9.751622260173451906e+00,2.613838533561144573e+02,-3.937625473936772647e+00
-9.094666715184814620e+00,2.627879414370031554e+02,-7.953396949938563054e+00
-9.541635119270500454e+00,2.629050368302715128e+02,-5.913482504861724109e+00
-9.713613146323051950e+00,2.624364980936865663e+02,-1.654095717254847608e+00
-6.199137766708282982e+00,2.610513304810934301e+02,-1.367580211366365717e+01
-4.632532865881472617e+00,2.606534107379052898e+02,-1.534884572213546150e+01
-3.084239601763563599e+00,2.611058942337112967e+02,-1.654892219464725756e+01
8.770016951874488598e+00,2.508516698310999686e+02,9.073147491947878507e+00
1.115844275222012527e+01,2.511350464679402705e+02,7.969173834026264558e+00
1.380155503076483114e+01,2.514564870154134439e+02,6.872785656991034386e+00
1.531200214447101082e+01,-1.262701018796941099e+01,-2.086121496777430551e+01
1.609411033441896066e+01,-1.366068115412310391e+01,-1.863490510521392451e+01
1.679719714363384142e+01,-1.434827557709714796e+01,-1.640250497319698297e+01
1.739022255637133085e+01,-1.506233588637444321e+01,-1.413199906451118615e+01
2.032873943136735662e+01,-1.542288391928772384e+01,-3.373630805107410424e+00
1.987772682508212085e+01,-1.568972806903670758e+01,-5.583968956082287605e+00
1.884100070403830429e+01,-1.725147371378982086e+01,-6.933680015159239929e+00
1.832801412011697550e+01,-1.671154318007929618e+01,-9.354157928219763107e+00
1.784642007324227109e+01,-1.596518477558866067e+01,-1.172950445983984835e+01
2.054433571528393543e+01,-1.585289837259994172e+01,-9.328467087963545623e-01
2.065685834401563170e+01,-1.638429006631492513e+01,1.236144026195809431e+00
1.122746835400380050e+01,-8.575835426406456463e+00,2.000045169756101160e+01
2.132295330052360072e+01,-1.574857514596634189e+01,5.262322999614767127e+00
2.096636508467793192e+01,-1.637328907479404805e+01,3.325613177091767625e+00
2.085533395157817438e+01,-1.317655556793603466e+01,1.124454346657184800e+01
2.116005271472650406e+01,-1.441782541707869392e+01,9.532653288458575958e+00
2.086569708423279934e+01,-1.723671020211465077e+01,6.682712370755623965e+00
2.073876534534049654e+01,-1.649860355401024492e+01,8.756979469410339334e+00
2.003730533449373041e+01,-1.362533357916003496e+01,1.296480168424194090e+01
1.797088555643518859e+01,-1.248608608714319246e+01,1.615569038510578537e+01
1.884669719139642297e+01,-1.414304201235209746e+01,1.464649200133046492e+01
1.489740161581220335e+01,-1.156302169194894702e+01,1.884907633240747771e+01
1.317800162622191351e+01,-9.751759562319165298e+00,1.987626423366197770e+01
1.590928523509137094e+01,-1.356170525264450077e+01,1.764006287094215963e+01
-3.561060709783738787e+00,-1.676403598118453786e+01,1.313935975281980184e+01
-7.845829441971094553e+00,-1.423705254239765416e+01,1.346767963663026535e+01
-5.117464725089860167e+00,-1.793015897778176537e+01,1.321535545918050758e+01
-7.230088590282239380e+00,-1.669772382218313211e+01,1.337322880930341995e+01
1.070333082845644412e+01,-1.067478775077453435e+01,1.885932278734047429e+01
9.151180968450127295e+00,-1.182217921453603182e+01,1.727693875633043419e+01
7.668179856893758028e+00,-1.332032122277607300e+01,1.593406884377076338e+01
6.058864447985229162e+00,-1.485781945528076164e+01,1.468337614803191116e+01
4.363138533048250167e+00,-1.616302375177365036e+01,1.344576202537646559e+01
2.072443563015845314e+00,-1.717478178355631968e+01,1.256882209815794482e+01
2.314779024617337200e-01,-1.867575134800364367e+01,1.169675563824160847e+01
-1.307788525422935777e+00,-1.786676195127511590e+01,1.271143583830085433e+01
-1.689356772254789263e+01,-1.648562288893210592e+01,7.567643290251202970e+00
-1.636568914206295844e+01,-1.446417232285516974e+01,1.116391290398492231e+01
-1.660125684454093431e+01,-1.659469351693100947e+01,9.850538018025057241e+00
-1.490414470160261828e+01,-1.591682973151753266e+01,1.332224217967555546e+01
-9.555157943740148596e+00,-1.520371325981854049e+01,1.378036259136147024e+01
-1.129226931851964366e+01,-1.649728958448362803e+01,1.390370365910513328e+01
-1.290377693865582742e+01,-1.787585483562579824e+01,1.365092850241932965e+01
-1.708314686826335560e+01,-1.914112335729304704e+01,2.395468470736796363e+00
-1.685187461738348702e+01,-1.967314109502292752e+01,1.696608855611518862e-01
-1.711384020161931829e+01,-1.858569971915224528e+01,4.290690496044271995e+00
-1.623861901931900320e+01,-2.117606234316981784e+01,-1.489100258189349768e+00
-1.693066388443867964e+01,-1.846959285683256979e+01,6.486038449465857170e+00
-1.533959695559242675e+01,-2.243803434538712338e+01,-3.017379964514210755e+00
-1.418576645412652937e+01,-2.337842311293167086e+01,-4.653710840117545544e+00
-1.504979501760278993e+01,-2.122047630333880619e+01,-1.009645039733116967e+01
-1.437757747693947152e+01,-2.263061363499956258e+01,-8.179789415059181223e+00
-1.317078182558146437e+01,-2.370726110669733089e+01,-6.367898296001035519e+00
-1.447304602520126338e+01,-2.201795244622353920e+01,-1.207234949484561604e+01
-1.477896819214632984e+01,-2.086083154495491243e+01,-1.407017596766334577e+01
-1.434618599716035803e+01,-1.750977724930188728e+01,-1.797083168929394148e+01
-1.389032458718210350e+01,-1.662812319562988961e+01,-2.013468446783618049e+01
-1.465740617002668955e+01,-1.935735443759678276e+01,-1.620916739133268081e+01
-1.350302024326809658e+01,-1.602635286092165501e+01,-2.202718171274485925e+01
-1.312740449506040363e+01,-1.320331078522365686e+01,-2.293565448309524513e+01
-1.187110287372625095e+01,-1.383050562359363767e+01,-2.484335296054801390e+01
-1.058721658451731784e+01,-1.417568719743678329e+01,-2.634775904485784537e+01
-9.199085701397340387e+00,-1.451364901156168230e+01,-2.754759617905173386e+01
-7.492188677663424556e+00,-1.488736146677860361e+01,-2.840279306298393891e+01
-1.566324218047938643e+00,-1.179616187509100911e+01,-2.842546559579601251e+01
5.265222555784987435e-02,-1.051538671520481572e+01,-2.785098864496196924e+01
2.245357169598513281e+00,-1.085924185196461522e+01,-2.792579707108514953e+01
-3.008923180280838494e+00,-1.308893186570954725e+01,-2.878828670620373842e+01
4.359038148554077452e+00,-1.137002235275447504e+01,-2.788911250218451698e+01
6.513041042466575448e+00,-1.206168420354049786e+01,-2.782796704095937201e+01
8.727710012636563874e+00,-1.278408808190291879e+01,-2.752235152455380529e+01
-4.279803699571072428e+00,-1.429822154682183921e+01,-2.897141517407890987e+01
-5.664650845405088120e+00,-1.568589031979260717e+01,-2.923876065376726174e+01
1.071854400648378203e+01,-1.343062794161392937e+01,-2.670597493526076605e+01
1.181848531946935310e+01,-1.215118864797662823e+01,-2.559612157218877115e+01
1.323540652188396649e+01,-1.285509541579444459e+01,-2.410331314383692813e+01
1.424464285470781633e+01,-1.381683168694690522e+01,-2.214838136248329192e+01
1.992327028759073215e+01,2.506546175785392165e+02,4.840069142024638893e+00
2.211369672422872412e+01,2.510738025901322601e+02,3.633440855010974246e+00
2.396909379264898732e+01,2.513760292512254750e+02,1.968229559029168740e+00
1.626716162282674816e+01,2.518705051831917956e+02,6.040218375408493046e+00
1.862150873833559217e+01,2.524062212223478525e+02,5.333755614433563608e+00
2.537011004391268898e+01,2.517687639892248797e+02,-9.156133240207253721e-02
2.031760894817893259e+01,2.569423870390605202e+02,-1.095643912825383381e+01
2.220940774452269295e+01,2.561713991681626794e+02,-9.588222726043554189e+00
1.689024619839278785e+01,2.586515453802830393e+02,-1.306625367922126557e+01
1.863344584736221776e+01,2.586051681271899270e+02,-1.207086225104064958e+01
2.395761937506992112e+01,2.553706791649276511e+02,-8.034643696443730221e+00
1.422203110445715524e+01,2.596949613258790919e+02,-1.444268633615389064e+01
1.588859929538043581e+01,2.604522198808081725e+02,-1.363279300057669374e+01
1.248154074261357316e+01,2.606034375711530515e+02,-1.525867383872374639e+01
-1.287905124140998225e+00,2.617412145150630067e+02,-1.740508731601232739e+01
8.260171355486676248e-01,2.621923331006181002e+02,-1.782146357836154493e+01
1.065910404924193067e+01,2.614049733403986124e+02,-1.603137157997786488e+01
8.728811256374640948e+00,2.622714399548361826e+02,-1.672862834021197642e+01
6.779792785799873656e+00,2.633838846737085646e+02,-1.731171093162717511e+01
2.963429977367944446e+00,2.626233785785129839e+02,-1.786635774113472053e+01
4.789757039676613815e+00,2.635326152092052325e+02,-1.771100509211668239e+01
2.626965865062534888e+01,2.542826709864204986e+02,-3.469447746406331134e+00
2.561686485956962755e+01,2.558019201772890767e+02,-5.880009313910331770e+00
2.593456567666215307e+01,2.540188570991165307e+02,-8.367009160548377622e-01
4.826462885131604708e+00,2.521378545612157041e+02,1.056593406025584869e+01
3.515144945427820744e+00,2.536704878940047081e+02,1.071568721028687321e+01
7.097845868700012772e+00,2.526457099944070421e+02,9.903260836299814684e+00
2.776127888083124162e-03,2.556129920922278984e+02,1.014133137808585872e+01
1.821854745812458987e+00,2.548585699406472145e+02,1.063381290257551370e+01
-3.236517744309882261e+00,2.574930060616359242e+02,8.300896831972153223e+00
-1.719979250392785985e+00,2.566151785960614689e+02,9.338477768366107767e+00
-4.715261918107218619e+00,2.582801049179325901e+02,7.011180727263170986e+00
-6.092891082330214481e+00,2.589486087144741191e+02,5.535828978961603752e+00
-8.347555002790747025e+00,2.628280510157902654e+02,-1.013060618979443461e+01
-7.311850737507469944e+00,2.624866278836606170e+02,-1.217206481474728363e+01
-6.783307336076883409e+00,2.608570606090329420e+02,4.832613940859806334e+00
-7.862587891078081981e+00,2.618827462531280617e+02,3.336175874592282931e+00
-9.253214958057730755e+00,2.633476614735752150e+02,3.578053763310993229e-01
-8.416964975750003575e+00,2.639788509855746383e+02,2.503975725063273927e+00
-9.784960914440222979e+00,2.638333517314308665e+02,-3.893724166905160544e+00
-8.832965126669948930e+00,2.648605017701616475e+02,-8.962214995660998440e+00
-9.493336154590300779e+00,2.652274962277025452e+02,-6.446209897655377219e+00
-9.842676985634238207e+00,2.647020135829197329e+02,-1.797815002223786873e+00
-4.726025099399905116e+00,2.628820664285917701e+02,-1.539251745334479438e+01
-6.269672270498787725e+00,2.636377557393566349e+02,-1.367285064231485237e+01
-2.787881143268062800e+00,2.632798105903737564e+02,-1.683777606688906303e+01
9.516878707572402618e+00,2.529422081866346161e+02,8.866041807727100377e+00
1.212450966145167541e+01,2.532598664380521427e+02,7.668696764936505872e+00
1.475380161454551597e+01,2.536626545812747793e+02,6.633106263217605658e+00
1.485605216834090214e+01,-1.509250857285715242e+01,-1.986133724276801615e+01
1.520002308633125665e+01,-1.600859226644066524e+01,-1.741917149876890392e+01
1.564711377436642081e+01,-1.660819061906606464e+01,-1.498422411839731261e+01
1.613810012303054364e+01,-1.733803771846941189e+01,-1.258886452571393733e+01
1.929685860869909675e+01,-1.762650864781888771e+01,-4.308009524864154116e+00
1.975909441336885664e+01,-1.747462629095685571e+01,-1.967025061154480170e+00
1.753367635060320140e+01,-1.896311586152332040e+01,-8.132359821410879874e+00
1.831211190907956876e+01,-1.931587805174206807e+01,-5.760762072964375591e+00
1.671195180031821792e+01,-1.824372603847018581e+01,-1.035079813540115623e+01
1.962414716352946442e+01,-1.843741334601080695e+01,6.480521906578928792e-02
2.005573393176774033e+01,-1.821216083163927379e+01,2.483952275198546999e+00
2.056884946488193577e+01,-1.781614981927573993e+01,4.705574467046531595e+00
2.036673273817921626e+01,-1.540277920983996651e+01,1.097377754538013761e+01
1.975298450117080051e+01,-1.871079143554888802e+01,8.334553919311161962e+00
1.969240412907269189e+01,-1.943118057335562199e+01,6.299628198372836607e+00
1.953293846352923424e+01,-1.758642783541645827e+01,1.043484620256791828e+01
1.925334233774253789e+01,-1.593445520113975533e+01,1.269400351609058220e+01
1.729155236095055059e+01,-1.454508114048361023e+01,1.615090102896655821e+01
1.777436792015842215e+01,-1.641713847231470780e+01,1.442665702791073556e+01
1.255710518498693418e+01,-1.189098547059258237e+01,1.922870191266778050e+01
1.347521616597716232e+01,-1.378628115457534165e+01,1.843254589817149736e+01
1.602979634003617093e+01,-1.644366292417605635e+01,1.631845338047698135e+01
1.411629172600544990e+01,-1.586981235625314213e+01,1.750082657307807921e+01
-3.224403882056527948e+00,-1.908504953068095489e+01,1.255761582816126420e+01
-4.665838614245849669e+00,-2.038167625487141521e+01,1.239501996772361281e+01
-6.682709575937423097e+00,-1.932236195055927652e+01,1.313902904499218138e+01
-8.971681054143132883e+00,-1.804960593885946452e+01,1.347699658256953725e+01
1.091547603238186426e+01,-1.313145295333281837e+01,1.798293640505785262e+01
9.385017958892309053e+00,-1.436449913298337577e+01,1.660384852038957604e+01
7.802363014573998612e+00,-1.589444612755734987e+01,1.516279425378778356e+01
6.243229150881607126e+00,-1.713483124184377715e+01,1.361775094913644324e+01
5.618699183034433275e+00,-1.824418206298664913e+01,1.203912171197438497e+01
3.857527258683731475e+00,-1.795309075486874661e+01,1.215787734454493574e+01
2.207175065475269093e+00,-1.876339480767329349e+01,1.106050835705851298e+01
6.599890739190570343e-01,-1.969576702489234066e+01,9.805565816431712989e+00
-1.145365396548378101e+00,-2.026016868893113099e+01,1.016277954890694701e+01
-1.730566221591828935e+00,-1.963427279471236631e+01,1.160544083918258806e+01
-1.647056077100489091e+01,-1.869388897019042162e+01,8.726090818942338956e+00
-1.594221160242092594e+01,-1.681247016700351793e+01,1.191236856423315515e+01
-1.558886056243687079e+01,-1.908608507898138384e+01,1.092918177331936924e+01
-1.424596971379800081e+01,-1.888643756928968642e+01,1.279301920740559240e+01
-1.066552620187406220e+01,-1.938300578393273099e+01,1.329935985717303737e+01
-1.208823768227853179e+01,-2.066381881911906504e+01,1.270087197126839129e+01
-1.648153582058485256e+01,-2.144607961132380325e+01,3.638124518345872804e+00
-1.663667518912947685e+01,-2.111682877329119634e+01,1.639718466797459584e+00
-1.602404128789319770e+01,-2.229570663513540296e+01,1.105477133847800886e-01
-1.666146469293120447e+01,-2.035842230957992882e+01,5.251313129218159403e+00
-1.510406990492543855e+01,-2.341888792262315633e+01,-1.438663901747284868e+00
-1.597954667377626947e+01,-2.071675848512465024e+01,7.396283047628203988e+00
-1.363258074735995251e+01,-2.426411907550736657e+01,-3.021420366331426521e+00
-1.171423997125280891e+01,-2.433153327771196928e+01,-4.499364978913879654e+00
-1.345892106266443733e+01,-2.330404556252026538e+01,-1.020747713758637687e+01
-1.224905985078630977e+01,-2.372362254521777913e+01,-8.384755828546181178e+00
-1.078898563792274956e+01,-2.383176037788916801e+01,-6.375019430120556052e+00
-1.268605019336451889e+01,-2.388001465737092133e+01,-1.233142423358730966e+01
-1.385792028836732115e+01,-2.314813835060021319e+01,-1.414881445097927148e+01
-1.436940543114903157e+01,-2.169241319216747854e+01,-1.603932508433562987e+01
-1.386475067589299215e+01,-1.917642405450337151e+01,-1.976231774642922190e+01
-1.419533672207435693e+01,-2.021415340824060536e+01,-1.806082424938993825e+01
-1.339276546597544382e+01,-1.947070576682322596e+01,-2.168909064762870642e+01
-1.305950836763934575e+01,-1.806875816259657697e+01,-2.334640294662301230e+01
-1.269007450981181506e+01,-1.564895913424229512e+01,-2.411103163762621904e+01
-1.158444893753737404e+01,-1.631480076365453158e+01,-2.593325769387065804e+01
-1.036291464718754085e+01,-1.655169895412256409e+01,-2.738651774007762540e+01
-8.802487366446719363e+00,-1.666139720451037576e+01,-2.838957317088870269e+01
-7.176368793236459709e+00,-1.714406254990726453e+01,-2.934568215345326081e+01
7.426391876615596743e-01,-1.240499910337849698e+01,-2.874265167480917427e+01
-8.749003834976818439e-01,-1.375641935330349419e+01,-2.935745623232996238e+01
2.806135087550657659e+00,-1.288515241297505298e+01,-2.878558625570990870e+01
-2.496293019546676817e+00,-1.516933275513021684e+01,-2.973752855343900237e+01
5.003901767858565108e+00,-1.338551970966692473e+01,-2.875626335534022715e+01
7.344420716025624074e+00,-1.405311381875019627e+01,-2.848205927981039309e+01
9.463692823848994351e+00,-1.469579333736030158e+01,-2.779221859124337257e+01
-3.975983028509716632e+00,-1.664902257560660814e+01,-2.999624390287721099e+01
-5.551724270840168174e+00,-1.825728133603801950e+01,-3.021100610349681759e+01
1.106541088661912653e+01,-1.550874246361701481e+01,-2.659993140095485131e+01
1.215976992169800752e+01,-1.413704724738698815e+01,-2.531837170697443895e+01
1.314994111435799340e+01,-1.509383265255339523e+01,-2.344613160440513511e+01
1.372058671803256757e+01,-1.625143741019757471e+01,-2.123256289625020443e+01
2.082067314469871633e+01,2.529351954827671420e+02,4.545807058471517337e+00
2.293343261615395789e+01,2.533615094304000763e+02,3.230399119697608512e+00
2.472491852525144296e+01,2.536655418326249674e+02,1.363539698114351495e+00
1.721076429498655358e+01,2.541250343633073498e+02,5.864449895536324675e+00
1.948451247589168389e+01,2.547128601633194762e+02,5.172382733280045386e+00
2.168112099895974865e+01,2.583974155712331253e+02,-1.006530433757639109e+01
2.009662942248358775e+01,2.592311076803079004e+02,-1.117817424038372387e+01
2.332940403638875893e+01,2.578292603399365817e+02,-8.728492133162891520e+00
1.764854655577210707e+01,2.607961797355011413e+02,-1.269700995126654419e+01
1.933751557519290643e+01,2.613375277396340834e+02,-1.171697422178569070e+01
2.474035981607296009e+01,2.573658555937835217e+02,-7.256922424916584013e+00
1.424719641236174361e+01,2.619514299948838811e+02,-1.447319603568924862e+01
1.601015167503000924e+01,2.628323721624888094e+02,-1.361894378052019405e+01
1.251279742552315710e+01,2.629278095550408807e+02,-1.529139416320740708e+01
-7.454177693035290986e-01,2.639470841393553542e+02,-1.764052806338947832e+01
1.332195465574084636e+00,2.644557056695923620e+02,-1.793904369815271949e+01
1.048496332969909162e+01,2.636457276865609174e+02,-1.614289977167438650e+01
8.537145862033540311e+00,2.645573814214556023e+02,-1.683918407536070205e+01
6.831529446670716155e+00,2.658970629747157659e+02,-1.736009039336033766e+01
