-1.398866665796804298e+00,2.397277638762788570e+02,-1.746478948069703563e+01
-3.230811089891368226e+00,2.401139283353847986e+02,-1.645711729422291825e+01
2.523997366436929468e+01,2.308268767886124522e+02,-1.022679905019251123e+01
2.341682225014240970e+01,2.324448393273959539e+02,-1.140696069834289794e+01
2.700649863112148097e+01,2.315293979408699840e+02,-8.780530371897826925e+00
2.809851200824179074e+01,2.306030334814142293e+02,-7.102835421091709733e+00
2.165603109861158515e+01,2.341720868933968518e+02,-1.240448893666373031e+01
1.997755639508471859e+01,2.359757512331927671e+02,-1.325204783000452835e+01
1.892929034606735783e+00,2.312736492769279835e+02,9.841652532085639393e+00
3.958525004108937040e+00,2.302306808970831469e+02,1.046529584010235681e+01
-3.276835886158639966e-01,2.325621731743991347e+02,8.825474812988186812e+00
-2.468006317480746503e+00,2.335967967123594917e+02,7.527431226900890948e+00
-5.839032099566828116e+00,2.356745197033010299e+02,4.260228302227231367e+00
-4.331900707707873721e+00,2.346028608478341937e+02,5.907094451905198440e+00
-7.791899615928471690e+00,2.383123540556968294e+02,-9.884066719325723227e+00
-8.607491639995190624e+00,2.390264286996282976e+02,-7.293092799678962734e+00
-8.276098231622622592e+00,2.367759714957287258e+02,1.575491023231556653e-02
-7.119496813037246241e+00,2.365928021728225019e+02,2.551921970008745433e+00
-8.794919427720383709e+00,2.396863979724585363e+02,-2.769213891709306985e+00
-8.498488506538492970e+00,2.388721973392462132e+02,-6.229669459681321797e-01
-8.858127346538626767e+00,2.405217300566145298e+02,-4.971067385178166376e+00
-6.978799173764070218e+00,2.397034206314005473e+02,-1.167006868807465381e+01
-4.735576243390719142e+00,2.406497698448817459e+02,-1.500823504825523358e+01
-6.107638573956981176e+00,2.411684224833801125e+02,-1.321099025862068643e+01
7.926288353159138822e+00,2.304084384499185205e+02,9.897142439459770458e+00
1.411909847025663822e+01,2.301592403761110290e+02,6.490385505336455196e+00
1.180450568003576706e+01,2.310877999652690278e+02,7.708657335684456768e+00
9.660387476970916154e+00,2.318744133865805850e+02,9.105132188908619639e+00
6.045405990915970307e+00,2.314847527395565123e+02,1.062200577813408131e+01
1.644790225199528422e+01,6.409902233946167982e+00,-1.871867043465913483e+01
1.787859741015091686e+01,5.431420055133397540e+00,-1.725182400474913536e+01
1.877548844856205434e+01,5.443628323644582601e+00,-1.537580465865502077e+01
1.493347390805559982e+01,7.003825744291813038e+00,-1.994372830952158893e+01
1.952065316487687952e+01,4.089577935839319167e+00,-1.438253477620786924e+01
1.984833659495579639e+01,4.934597492245879735e+00,-1.233700307991696121e+01
2.020102118339717734e+01,5.123281949662480628e+00,-9.957275187667992356e+00
1.449345507820707368e+01,1.112884013764473501e+01,1.078445508397635422e+01
1.280618784033332958e+01,1.039206334962769418e+01,1.321877313146495680e+01
1.568292772873755325e+01,9.347199216966393109e+00,9.776658820743758582e+00
1.680580165419763716e+01,7.487142616387812311e+00,8.821457504109236680e+00
2.045191727024544548e+01,4.420097684815930350e+00,-2.146201277121192241e+00
2.014036829961806774e+01,4.596308961532429294e+00,4.267346342042261931e-01
1.960377950056984986e+01,5.029514902759244066e+00,2.851495210601154184e+00
1.883531193331356945e+01,5.380493321334055778e+00,5.335231910461077476e+00
1.788785872359570561e+01,5.473440567283249791e+00,7.897041871929477708e+00
2.052035758989524084e+01,4.629684579179642157e+00,-4.805476183662516831e+00
2.042476981347439846e+01,4.995644542880356198e+00,-7.397081060425062304e+00
-6.299577401820535272e+00,5.502999593328948613e+00,1.351282998982939887e+01
-8.156613522859725407e+00,5.274798723237619669e+00,1.255206939040521164e+01
-9.925369441126974834e+00,4.960875476213667312e+00,1.116502878763640894e+01
-1.165841220738595396e+01,4.509371010782893485e+00,9.374206891067210279e+00
-4.491838196023046237e+00,4.425529966036909180e+00,1.389925856949682981e+01
1.055430973242071246e+01,9.705268754587338620e+00,1.546994829118243331e+01
7.795986931703060563e+00,9.146938257603492772e+00,1.682773189549968151e+01
5.449943465100473894e+00,7.897273000686208633e+00,1.718546977309498658e+01
3.156134894121761736e+00,6.915887397463485797e+00,1.655690700803360471e+01
1.220831127800348526e+00,6.162369122058847459e+00,1.577549847543478023e+01
-5.748899380975842632e-01,5.022651293226010338e+00,1.497283061063257037e+01
-2.436695738810184864e+00,3.590107230176160069e+00,1.429290947116871635e+01
-1.593589665637093944e+01,3.725567066955546736e+00,-1.983218583099741750e-01
-1.557944994408097017e+01,3.626464130738448421e+00,2.060749024352408920e+00
-1.501120686978137897e+01,3.473846870900411332e+00,4.265574884445010539e+00
-1.425603685851592672e+01,3.243460837037612343e+00,6.316756149243404117e+00
-1.331277019578957521e+01,2.819230754699783681e+00,8.193688813283563022e+00
-1.672021948817661041e+01,1.602898267358120687e+00,-1.086803495896095484e+00
-1.694377572901385065e+01,1.363602880041784093e+00,-3.283200658608755873e+00
-1.711522392075000099e+01,8.073183306613700427e-01,-5.440410502719640107e+00
-1.706162109891574730e+01,4.105541989264763214e-01,-7.688657189916014545e+00
-1.673276556592073305e+01,4.992328018481642093e-01,-9.823580431313917671e+00
-1.642585456254598597e+01,1.567588494537430766e-01,-1.183023807044668274e+01
-1.573316750117069418e+01,2.060205417176224962e+00,-1.281946440868634340e+01
-1.487367323238084538e+01,3.607560467560174011e+00,-1.450523402936521578e+01
-1.387982057514690837e+01,4.416353804008135597e+00,-1.629541982596373728e+01
-1.260726918016123577e+01,4.883923415232706233e+00,-1.792157499216217076e+01
-1.113838650029838817e+01,5.159600448614803270e+00,-1.926353008220293361e+01
-9.989287020352179525e+00,4.157760603725408899e+00,-2.068597907632408806e+01
-8.204589485037217855e+00,4.681026733360424075e+00,-2.137198689216047143e+01
-2.156239838198647618e+00,5.931755070524559414e+00,-2.247009690032062323e+01
-4.577905987014192490e+00,4.613314456179238299e+00,-2.265348281832050858e+01
-6.843301380249720012e+00,3.593840650774605017e+00,-2.255868410923980605e+01
3.562728083194066642e-01,6.389384335136938375e+00,-2.257713362683122327e+01
2.883850486152688575e+00,6.714306155430632472e+00,-2.258190993582725170e+01
5.409082464405047475e+00,6.891406247908729910e+00,-2.250152703936761611e+01
9.071548073382979638e+00,8.480801822560064096e+00,-2.156746741609235229e+01
8.120722904196153280e+00,6.935008382577787955e+00,-2.233322023609988349e+01
1.130432040420638984e+01,7.327769908146844813e+00,-2.164127535853276285e+01
1.366723862048124616e+01,6.413047217793808485e+00,-2.116964970511543953e+01
1.886054079151818996e+01,2.310406775490888265e+02,4.487803272870152682e+00
1.618472808691186060e+01,2.316578636816129801e+02,5.570843397596657809e+00
2.150905857284311651e+01,2.304071846104436929e+02,3.272307025846357575e+00
2.370587509086032441e+01,2.298018760517743999e+02,1.816129740621470035e+00
2.699047784353456336e+01,2.303957640510931810e+02,-1.188186456251939305e+00
2.528896472664930428e+01,2.311869605605883748e+02,5.204053854576464744e-01
2.802019601276180083e+01,2.315275047927246703e+02,-2.991073364084455566e+00
2.852114575157654741e+01,2.324193453891954277e+02,-4.910333797690310753e+00
1.629619298239920866e+01,2.382801909890846446e+02,-1.486212737397397632e+01
1.862399498785520535e+01,2.382374843756341818e+02,-1.392269099121774545e+01
1.271915042717089150e+01,2.399673613018747744e+02,-1.616112516559496726e+01
1.504741315716091776e+01,2.402791551885440526e+02,-1.538381385104250043e+01
9.347210222661846757e+00,2.404961663326469363e+02,-1.711007089046614382e+01
7.102802335315089977e+00,2.405201141437933927e+02,-1.758759568836422815e+01
4.807327292635459770e+00,2.406560496974744296e+02,-1.793203576541442246e+01
1.123673518123382919e+01,2.419125169661050165e+02,-1.663304415750997123e+01
2.361587551093109028e+00,2.408849609494506865e+02,-1.808116837727025938e+01
9.335277250341356137e-02,2.412385272805201168e+02,-1.789616481323827202e+01
-2.028948391393965878e+00,2.418647006268520840e+02,-1.725958583888581899e+01
-3.744493379204145711e+00,2.422946729287504013e+02,-1.609346073733130922e+01
2.544359822910064395e+01,2.331294668016036553e+02,-1.014626632655584260e+01
2.376418292170126989e+01,2.347545531082462276e+02,-1.126357660190853771e+01
2.834763241827467795e+01,2.329863296165972884e+02,-6.848003666569073111e+00
2.741021664699535876e+01,2.339053195905010796e+02,-8.564499894240693578e+00
2.214613321839079418e+01,2.365012355236924293e+02,-1.220121452573905785e+01
2.072880614319496573e+01,2.383318670668149934e+02,-1.296626978670703778e+01
1.726359415726576252e+00,2.333025205323185105e+02,9.771098743320681734e+00
4.007671449681112108e+00,2.325096935117146870e+02,1.053108257615387089e+01
-7.031203101294560831e-01,2.347713605897474736e+02,8.682160651956202457e+00
-2.842285742530958448e+00,2.358320181249671919e+02,7.358535826094453114e+00
-5.976903357783875492e+00,2.380222702375335757e+02,4.177371857667932176e+00
-4.476986982110830127e+00,2.369734788351372288e+02,5.882164593048967660e+00
-8.062200014265021863e+00,2.404432744227225385e+02,-9.340526504604271807e+00
-8.704183526672562010e+00,2.414381368797484981e+02,-7.052754004387699283e+00
-7.774897330971729303e+00,2.382193710689389263e+02,1.457991393746504105e+00
-6.951129505639965345e+00,2.394957001340262366e+02,2.911127437555717457e+00
-8.628707570697930151e+00,2.411336450142629815e+02,-8.411138188255282699e-01
-8.893718321989114273e+00,2.420638495842754594e+02,-2.865333176027984763e+00
-7.959218530068508990e+00,2.404449519497807444e+02,1.249126820818012185e+00
-8.937039099483376603e+00,2.429501449499891805e+02,-4.831671044565306161e+00
-7.298780999902872324e+00,2.419694864898302455e+02,-1.118826176362525260e+01
-5.211933070498057319e+00,2.428098993354495576e+02,-1.452723493360738871e+01
-6.464707631234970719e+00,2.434484796082237779e+02,-1.272213140147900035e+01
7.813646588227845413e+00,2.329662574422147827e+02,1.025333172118987335e+01
1.400931628519739292e+01,2.327036762410565700e+02,6.630604930614659054e+00
1.140781371976871306e+01,2.333768819623916499e+02,8.138650571408604151e+00
9.465205102594307363e+00,2.344567309600759870e+02,9.388948126292731899e+00
5.906426217004083767e+00,2.339988274494425866e+02,1.075926449698634002e+01
1.718517942873011251e+01,4.518051213213610140e+00,-1.899950653650331844e+01
1.585848444186140327e+01,4.838756886280144442e+00,-2.039955133298457923e+01
1.894254796393355988e+01,3.478932671105539942e+00,-1.647165978051684476e+01
1.828351032198877846e+01,3.013880920289909060e+00,-1.826387548646609105e+01
1.990953861121800728e+01,1.795572828707186375e+00,-1.540479604287405735e+01
2.021348371824090151e+01,2.520143060253396072e+00,-1.328573608406144757e+01
2.048845735994078510e+01,3.081085533834805545e+00,-1.109932965627481138e+01
2.075758025715023081e+01,3.154168132393131430e+00,-8.625853823279683752e+00
1.414498618086439308e+01,8.702698260794941021e+00,1.237548828394677969e+01
1.222351548749760042e+01,8.035509299665548610e+00,1.479402810088377151e+01
1.541728017980481269e+01,7.002201036097839726e+00,1.147961473506466845e+01
1.665006543924756244e+01,5.244055791770438901e+00,1.056659177930501770e+01
2.084403041211224661e+01,2.228717794299276633e+00,-6.098767587378377542e-01
2.099731329970087756e+01,2.416398002693778579e+00,-3.319824884236694196e+00
2.044198857728699181e+01,2.508435646237515471e+00,2.045851125142679194e+00
1.980511800159072777e+01,2.907329222274578129e+00,4.547121609350817550e+00
1.893166278368079247e+01,3.315263929781858465e+00,7.042559244870474799e+00
1.783786921370675316e+01,3.264861201915165267e+00,9.817546371183311749e+00
2.095473318496210169e+01,2.794139837621260725e+00,-5.978352434669494286e+00
-6.635152082485170411e+00,3.228309471749049919e+00,1.356767206670065917e+01
-8.843515454866452075e+00,3.098632867379571110e+00,1.264904291394261904e+01
-1.078438207696381923e+01,2.830459626620022817e+00,1.122246041346439327e+01
-1.243264602245255901e+01,2.088165879239891609e+00,9.845904151804697690e+00
-4.258574702546006563e+00,2.184010848615410172e+00,1.397580597130450997e+01
9.832011068812530397e+00,7.425973469865304821e+00,1.666538240446471519e+01
7.401470925839332082e+00,6.528297694433771170e+00,1.755787223592683688e+01
5.031486096331759583e+00,5.610138528675925329e+00,1.738998082506595466e+01
2.914707409911611258e+00,4.661872980932766808e+00,1.666157667834338696e+01
1.088875324223278263e+00,3.721556633281821291e+00,1.578583237107255854e+01
-6.535870471948275195e-01,2.661806613820507650e+00,1.495778600554194782e+01
-2.482208933862407818e+00,9.814372960156230175e-01,1.439378624330284850e+01
-1.644679557465952513e+01,1.616937895900538713e+00,1.109974024832172113e+00
-1.607766821164563353e+01,1.416972381583600393e+00,3.285333073774121093e+00
-1.550007542832856089e+01,1.174556873287771808e+00,5.438561000343606011e+00
-1.474655211593733739e+01,8.008580069068091944e-01,7.537270761926539997e+00
-1.382439202244771792e+01,4.915920382578775616e-02,9.564901513198909910e+00
-1.733123802067851571e+01,-4.883328905310726498e-01,1.189030842265204058e-01
-1.754716041428100937e+01,-6.133643414865408428e-01,-2.100201938203003493e+00
-1.773728691280068404e+01,-1.181746322789479553e+00,-4.161999551263132702e+00
-1.776485651606145666e+01,-1.653632353850185144e+00,-6.337906087314831183e+00
-1.756304777261496142e+01,-1.933577302486592320e+00,-8.488012676310709992e+00
-1.718939125827870029e+01,-1.982799850119407958e+00,-1.061042747736280489e+01
-1.681133441677143026e+01,-2.386266960561397532e+00,-1.277844275034469490e+01
-1.615469675299218721e+01,-5.377446735657899213e-01,-1.392578962620652305e+01
-1.547950598316879578e+01,1.415090916451642533e+00,-1.471453986740014130e+01
-1.469381965106470744e+01,2.231932705723983279e+00,-1.643712960562898218e+01
-1.352958203950952054e+01,2.865724486272148930e+00,-1.812325443237603650e+01
-1.206278383616488981e+01,3.145166872480420928e+00,-1.966085369779364811e+01
-1.076590144507849089e+01,2.479898839711110803e+00,-2.114135480792474908e+01
-8.938186951973225547e+00,2.505759946208003797e+00,-2.226720547070960521e+01
-2.735353676466619532e+00,3.797196735382397215e+00,-2.343416949712161568e+01
-3.749104760758887878e-01,4.431106502759885046e+00,-2.340706652921592479e+01
-5.097114185834993094e+00,2.675152200491232257e+00,-2.356894449567094085e+01
-7.277970886328546385e+00,1.630940609871263547e+00,-2.354743041837117090e+01
2.084110283642834460e+00,4.728466858932504735e+00,-2.343387215746002639e+01
4.574534463342942558e+00,4.902851194387666922e+00,-2.336639247549011600e+01
7.192746704697832172e+00,5.033828051020954319e+00,-2.320842568099470782e+01
9.920974095526457148e+00,5.419222914418504899e+00,-2.277648920338721084e+01
1.235811349109014046e+01,5.256629570891268699e+00,-2.234037908137641537e+01
1.469465534089030001e+01,4.268293255433865951e+00,-2.177232112595451952e+01
1.786515965573829234e+01,2.334365943112770196e+02,4.881689146987699957e+00
2.081490461321829599e+01,2.326663116430567300e+02,3.551970320825615701e+00
1.560622547480833333e+01,2.348426945876921650e+02,5.925071821482703172e+00
2.322162779221547879e+01,2.322418329815659490e+02,2.133611819902126783e+00
2.683093708683043133e+01,2.325550861865899037e+02,-1.009715577425100541e+00
2.507550586963785122e+01,2.334738755642887895e+02,7.441068574447662343e-01
2.798928888232246948e+01,2.338751340156150320e+02,-2.814939518443408062e+00
2.862237728262224579e+01,2.348037685500633529e+02,-4.606019074071512343e+00
1.730771570918739144e+01,2.403412793668055656e+02,-1.452737140069688238e+01
1.939288723032466777e+01,2.404343144871153584e+02,-1.364462726880389454e+01
1.368023096102965752e+01,2.422095169774856060e+02,-1.589453456311345647e+01
1.599785148859972139e+01,2.424085460288053753e+02,-1.508977547249341100e+01
8.731099454450905739e+00,2.425597529039085316e+02,-1.726019727165042283e+01
6.305927723977362120e+00,2.426852025727943669e+02,-1.774454061078400358e+01
3.893829589757203280e+00,2.428205878828636912e+02,-1.804703054138669316e+01
1.248948239304818486e+01,2.441096663755207601e+02,-1.631193487482952165e+01
1.025397192599418617e+01,2.443001320986359701e+02,-1.695070284504556213e+01
1.577832258270749577e+00,2.431296287373297957e+02,-1.809054799880020781e+01
-6.549827154838236964e-01,2.434982664624343158e+02,-1.777677630802335784e+01
-2.675060754836540156e+00,2.439840298183670200e+02,-1.697518197303526222e+01
-4.274239780763430474e+00,2.444646721496881696e+02,-1.565376036320183317e+01
2.587224494678775955e+01,2.353970591808031827e+02,-9.942512367205504020e+00
2.425053040864833775e+01,2.370418538255423755e+02,-1.103695507693070610e+01
2.858050482720839369e+01,2.353708330586871966e+02,-6.568443413896913441e+00
2.769384625651422738e+01,2.362445397168250452e+02,-8.333991110315182027e+00
2.283903783857199699e+01,2.388412168073188298e+02,-1.188166221173711534e+01
2.140714677998168014e+01,2.406079870522680437e+02,-1.267938857948561804e+01
1.365528389679896648e+00,2.352514383007965364e+02,9.631533816885870181e+00
3.689341953729753598e+00,2.346814150377689714e+02,1.043585568187171475e+01
-1.197526451152993499e+00,2.369369777929329643e+02,8.512052174524541215e+00
7.833016726275827679e-01,2.371899685921313221e+02,9.410613594103129032e+00
-2.814735287468755676e+00,2.382069005578455858e+02,7.524340577683393150e+00
-5.800244805138243365e+00,2.405532591618308800e+02,4.434310052480984865e+00
-4.515439079335290984e+00,2.392181308878692789e+02,5.935635914833380156e+00
-8.231958425661211720e+00,2.427496400161337249e+02,-9.037812671533584918e+00
-8.772647034483044948e+00,2.439143680243811616e+02,-6.889163917039825336e+00
-7.038566917446482663e+00,2.419785938828336214e+02,2.782452522721621690e+00
-8.713310349334056681e+00,2.435255498668849157e+02,-9.815071624340658829e-01
-8.169176723834150167e+00,2.425683735440175894e+02,7.889170704084467189e-01
-8.970702791585196678e+00,2.446146784674764945e+02,-2.679075151855449199e+00
-8.988870404952850279e+00,2.453633102808178705e+02,-5.000149322635337512e+00
-7.544966912489670108e+00,2.442670810076376995e+02,-1.080614347062308411e+01
-5.674291438904573326e+00,2.450856092747648916e+02,-1.399754610019358125e+01
-6.918837799179396342e+00,2.458458166455238825e+02,-1.204558248490181782e+01
7.632267490760868967e+00,2.356029561660950264e+02,1.045476767102594096e+01
1.316931903937808812e+01,2.347782164518498575e+02,7.178162554402298667e+00
1.124911393374542712e+01,2.359250395521997063e+02,8.461633257661958396e+00
9.310671827625419894e+00,2.370068811279485601e+02,9.674714548180581630e+00
5.543058802965633802e+00,2.363930877742286043e+02,1.070360523716028212e+01
1.733130310361556781e+01,2.683728859129971500e+00,-2.005449608116465043e+01
1.625610876290012285e+01,2.537047488230841807e+00,-2.145114632133485344e+01
1.937496651630250710e+01,1.219892137577681002e+00,-1.743170313964181872e+01
1.859684913505102344e+01,9.282796476370970273e-01,-1.931773652790615969e+01
2.069227812846337500e+01,7.801749716989192507e-02,-1.418431732953014546e+01
2.033756876430941674e+01,-4.636369188528934870e-01,-1.628284928754597516e+01
2.084887736284576931e+01,7.616373710388888441e-01,-1.207174778244395341e+01
2.109019917470565986e+01,1.144658394180192218e+00,-9.732191917384401592e+00
2.134387046038119706e+01,9.786383198637622627e-01,-7.139572366394588698e+00
1.372472968397568138e+01,6.364994580792438406e+00,1.404398423457740819e+01
1.165288634820224090e+01,5.762230198802487990e+00,1.629076681904247437e+01
1.514095902756556455e+01,4.662011042537379524e+00,1.321815123704320882e+01
1.655129649093387911e+01,2.945413728060934488e+00,1.234754692877603333e+01
2.125189616282641225e+01,7.780356871965921073e-02,1.038818940786292444e+00
2.149123201495883251e+01,1.068300139739690735e-01,-1.778637873276650128e+00
2.151870236696103689e+01,4.639925342923216789e-01,-4.485292418797731884e+00
2.072680108486526507e+01,3.951084893954170951e-01,3.750210102782403965e+00
1.998909948572160999e+01,7.885416550081814080e-01,6.387280396264792159e+00
1.891047944209633869e+01,1.451176828473219160e+00,8.895776456061543769e+00
1.793896832325356172e+01,7.245896434160266075e-01,1.168360223640276985e+01
-5.878291890920550600e+00,9.684374044103254420e-01,1.384505371792571893e+01
-7.902085018878420186e+00,1.068791382334701723e+00,1.349207095833786596e+01
-9.966011981645518603e+00,9.484616819807669685e-01,1.269219197208765237e+01
-1.191685432140356582e+01,5.340620214037805624e-01,1.138902354827360242e+01
-4.193468322189669806e+00,-5.855075321557112744e-01,1.416997823219881525e+01
9.342249091211439094e+00,5.045235331872477857e+00,1.772627814250085265e+01
6.878305314982556595e+00,4.146940664908953522e+00,1.819894739442777620e+01
4.648511978830447866e+00,3.372108609852968009e+00,1.763703042086770267e+01
2.672463294472910089e+00,2.358003663493112523e+00,1.672947098001490218e+01
1.098286879078347766e+00,1.297355642759104422e+00,1.587034772447431763e+01
-6.698364646441774539e-01,4.627799178697022398e-01,1.504846448742072695e+01
-1.711644873738192629e+00,-1.458441920398756864e+00,1.478112625864057961e+01
-1.710889102622997626e+01,-7.477942786067490744e-01,2.222671203316952671e+00
-1.674407496206698909e+01,-9.705185197574301981e-01,4.292453831021773247e+00
-1.623592024902307429e+01,-1.223048600885407566e+00,6.358354203636672253e+00
-1.556514739631494137e+01,-1.592842636110516352e+00,8.363952350246350420e+00
-1.306815015660486523e+01,-1.422817307552172394e+00,1.158300020083695969e+01
-1.485599838565574515e+01,-2.329670003080433816e+00,1.032572334431469230e+01
-1.814096939529539299e+01,-2.923368721356003341e+00,1.059625402417752937e+00
-1.818356391216530454e+01,-2.579318707162703284e+00,-8.937606472570962524e-01
-1.847376549507033872e+01,-3.196413543854058847e+00,-2.753033997830439006e+00
-1.854735822066336937e+01,-3.665093262598566159e+00,-4.816172360148389231e+00
-1.844869348618616556e+01,-4.172313295790859300e+00,-6.922405663809609422e+00
-1.806956844666078155e+01,-4.328798840697387185e+00,-9.040329242164268919e+00
-1.761799332689022179e+01,-4.396137623587652143e+00,-1.113880510813837432e+01
-1.710662292926977557e+01,-4.621281851707419008e+00,-1.331711016523966151e+01
-1.629780133188662816e+01,-2.541270556065910124e+00,-1.520802273259323556e+01
-1.555674447201229782e+01,-2.516567992394990183e-01,-1.608103236982027795e+01
-1.466075331148801197e+01,6.245843753088138328e-01,-1.792814453594887425e+01
-1.344283460621938531e+01,1.191632474217618309e+00,-1.955122650921350669e+01
-1.211303689478549117e+01,1.047093553732870053e+00,-2.100224712385305992e+01
-1.051133345066884317e+01,7.503243757908979461e-01,-2.237394164879662384e+01
-8.998123105610218886e+00,3.270172596044922386e-01,-2.357381815248625401e+01
-3.313961856127923156e+00,1.776649436502304447e+00,-2.445590412138659531e+01
-9.384650209276195199e-01,2.471581258338465759e+00,-2.434611030128512965e+01
1.460937843608114406e+00,2.763496991863892305e+00,-2.434795788509978465e+01
-5.626804180462176674e+00,7.312840476560458214e-01,-2.464561989450037771e+01
-7.539508689496351224e+00,-4.852683990290405092e-01,-2.481280986449694836e+01
3.879311051870194760e+00,2.909796401175412939e+00,-2.429812454693751889e+01
6.347418304348213525e+00,3.019048010133992932e+00,-2.415184900725282802e+01
8.868099853816509892e+00,3.266264516166508258e+00,-2.386784388277693125e+01
1.124349869518630918e+01,3.408393073493154901e+00,-2.346150752141318208e+01
1.339867532005616013e+01,3.335638586633406177e+00,-2.291201664067739330e+01
1.503961664911438589e+01,1.877852868732517777e+00,-2.277767455510814187e+01
2.037771031756512485e+01,2.347155438449020721e+02,3.842503953327124577e+00
1.814687606501497896e+01,2.359422132123624465e+02,4.835709017263219778e+00
2.283963509828642202e+01,2.347159291075279555e+02,2.386027868279832376e+00
1.603715539025658288e+01,2.374361161579587076e+02,5.803940546653695520e+00
1.356722865855959625e+01,2.368980916203181835e+02,7.014614772229819550e+00
2.678150363318828653e+01,2.347153330874773474e+02,-8.811269683014999465e-01
2.489850113434693668e+01,2.356930939169953945e+02,9.906091165053858560e-01
2.803050455256892093e+01,2.364058808489060937e+02,-2.525778346727386658e+00
2.870525264887776729e+01,2.371658855165524358e+02,-4.556816009358506392e+00
1.813681264773081381e+01,2.424868932654112825e+02,-1.423876988967366586e+01
2.020040316032830674e+01,2.426283170856152651e+02,-1.332795108000648909e+01
1.486844713095175763e+01,2.444166750436336315e+02,-1.553906816249394751e+01
1.696471444889031588e+01,2.445379513183962104e+02,-1.477367673117419145e+01
7.835373705837227476e+00,2.447101609719769328e+02,-1.750779842500583072e+01
5.455814030504846812e+00,2.448782802266325689e+02,-1.790343918300926163e+01
3.063888257451516495e+00,2.450636756081655108e+02,-1.812621555116040639e+01
1.368625668005144647e+01,2.461825507804632309e+02,-1.597895267868264924e+01
1.148646791675255940e+01,2.463183961132503157e+02,-1.666128377871156729e+01
9.257694984792806281e+00,2.466229372889362139e+02,-1.725679362119909399e+01
7.572613719945842092e-01,2.453476520137644457e+02,-1.805925557446048302e+01
-1.427764332320961671e+00,2.456758417093504647e+02,-1.755228579017383694e+01
-3.242683017869939732e+00,2.460794753394727081e+02,-1.661218471279198283e+01
-4.772985772912541336e+00,2.466350213227663630e+02,-1.523326899511969756e+01
2.620812906682300536e+01,2.377294618079549480e+02,-9.730921445293416738e+00
2.499178076785224789e+01,2.393945398381716814e+02,-1.061094388452441351e+01
2.863500391193900896e+01,2.378130260056684619e+02,-6.569987238070414293e+00
2.771495869420701297e+01,2.386217966443513774e+02,-8.360051968111793741e+00
2.343438543680159114e+01,2.411848267412885889e+02,-1.160212067252506429e+01
2.213531226507608096e+01,2.428583859437709691e+02,-1.236018667738663268e+01
3.134824381988662978e+00,2.368089527583328220e+02,1.021201903749521733e+01
-5.440942192635072061e-01,2.390663883198326687e+02,8.904023108972534573e+00
2.147994112709729286e+00,2.388151969123218805e+02,9.907155900174014818e+00
-2.663409002905359202e+00,2.403505010901082812e+02,7.688058562182952471e+00
-5.703828112535155093e+00,2.427983727012496331e+02,4.580235919112769949e+00
-4.232531533935576462e+00,2.414589587840185345e+02,6.263469706557375005e+00
-8.344684256324285343e+00,2.450388179239382112e+02,-8.853796180266717997e+00
-8.796318792725715596e+00,2.464517539724877508e+02,-7.094583720396052229e+00
-6.533792735768986226e+00,2.445181477080310515e+02,3.528837831190346996e+00
-7.640000898908842153e+00,2.440613916522675311e+02,1.861776429213729322e+00
-8.440193669537478627e+00,2.452928421343732452e+02,2.251676141248069030e-01
-8.881609342916693350e+00,2.468451945680581048e+02,-1.189572997349496397e+00
-9.063061204676099436e+00,2.467520828525043441e+02,-3.324115723532176325e+00
-9.065531098572778390e+00,2.480883369063841997e+02,-5.185533890830916093e+00
-7.974824806063178784e+00,2.469096068899527268e+02,-9.876907502713123677e+00
-6.067340415870951631e+00,2.473604873274989302e+02,-1.354784962414623095e+01
-7.144177149073119182e+00,2.481103929289658083e+02,-1.173791387964904231e+01
7.258382619261807278e+00,2.382656765862964789e+02,1.043135956951359589e+01
1.150510547247520599e+01,2.382261939164323508e+02,8.313326559902584734e+00
9.633129025065592543e+00,2.392340736307617419e+02,9.557771956288434012e+00
4.732968903513986803e+00,2.385435191519027569e+02,1.043688727695848684e+01
1.771061598529724890e+01,5.297565451327155284e-01,-2.101412363888292845e+01
1.656456129716180570e+01,2.778384405968150617e-01,-2.241445183150569420e+01
1.972216565728465554e+01,-9.136102283604379259e-01,-1.838383477467332128e+01
1.892023901631159077e+01,-1.214628572489991454e+00,-2.023675690170973951e+01
2.100387850121520117e+01,-2.300672987342976761e+00,-1.481913465173429856e+01
2.128787557530596075e+01,-1.836495338905452357e+00,-1.280736922235765363e+01
2.053446254023432260e+01,-2.476366450540650632e+00,-1.702616255909196141e+01
2.142436119633540414e+01,-1.046986929160604873e+00,-1.072746538329819543e+01
2.167336009773586625e+01,-9.244109145411112394e-01,-8.231744770591937765e+00
2.191958146408864394e+01,-1.434151429227592089e+00,-5.699965203439864680e+00
1.330056251972664683e+01,4.100931132462362072e+00,1.568925167086707262e+01
1.130812968255248663e+01,3.434931929318526755e+00,1.762272231328109484e+01
1.489977275085417574e+01,2.444397088917837912e+00,1.491527136714421431e+01
1.646965486924697331e+01,8.063215870405229246e-01,1.399289515137810014e+01
2.201144033794124510e+01,-2.116706605546237796e+00,-2.613187192121788627e-01
2.168022551042187729e+01,-2.027489426572303799e+00,2.705678894753740238e+00
2.208262861739591898e+01,-1.977980538857577741e+00,-3.008182317165180919e+00
2.112791256469937196e+01,-1.675126898933578801e+00,5.282875372517278123e+00
2.040169547404481420e+01,-1.412795051547089287e+00,7.687135394621304130e+00
1.941609079214604350e+01,-6.255210373596442608e-01,9.658912120916717470e+00
1.883624654277000587e+01,-1.657536464932584774e+00,1.205671129564346700e+01
1.714283721203749167e+01,-1.335485145880261904e+00,1.470611894005539000e+01
-6.518614192074227986e+00,-1.156481320584843431e+00,1.396967327300869854e+01
-8.746207649726681410e+00,-1.087664301063126615e+00,1.372406701804280615e+01
-1.099336526152969640e+01,-1.118178853606348611e+00,1.296683835718840783e+01
-3.424467134744269003e+00,-2.638506883484547316e+00,1.447160004882647044e+01
-5.429247606335376730e+00,-3.078023419666361171e+00,1.424001531311023072e+01
8.939349706959941244e+00,2.864461455363962017e+00,1.871286941764146405e+01
6.279649360473015030e+00,1.733643610139349533e+00,1.869904167736871159e+01
4.155320743256909921e+00,1.196698108202044253e+00,1.772530914423254700e+01
2.612873431020221737e+00,-2.687216338506590585e-01,1.685934661450014360e+01
6.074761945928406348e-01,-9.813002288647565408e-01,1.570256356188688329e+01
-2.002542941543570265e-01,-3.109816077030419290e+00,1.542071675476260140e+01
-2.070295244028470094e+00,-4.093368656608316947e+00,1.486438092600275951e+01
-1.790718175333434914e+01,-3.150786516803870896e+00,3.159934944907428989e+00
-1.757606882906028289e+01,-3.430412443547899315e+00,5.231396835549583457e+00
-1.712531817930024403e+01,-3.601962527472988285e+00,7.253338823936230639e+00
-1.654838915359600549e+01,-3.857081830261790856e+00,9.247217010623888456e+00
-1.408086227094567278e+01,-3.450172621283634555e+00,1.239024110983109850e+01
-1.211275726527165375e+01,-2.986524625569980884e+00,1.346541814306015183e+01
-1.586769413633145831e+01,-4.355056122751324921e+00,1.136025570386626171e+01
-1.904288313754774720e+01,-4.941696421736400779e+00,-5.700669552956494357e-01
-1.890169193951678750e+01,-5.153241406988859907e+00,1.870717302984590269e+00
-1.931123942722935993e+01,-5.545491468855263228e+00,-2.860567839932674161e+00
-1.930972464032834779e+01,-6.085741017717840151e+00,-5.122787188334001485e+00
-1.911097107302866149e+01,-6.651934675524220353e+00,-7.363314046201562491e+00
-1.856313134527455944e+01,-6.673461452720436782e+00,-9.529437948631116484e+00
-1.791178053168079032e+01,-6.775749678977280865e+00,-1.178241189801692457e+01
-1.668040039019242471e+01,-4.908429878833068472e+00,-1.528861866958690285e+01
-1.729204437795059590e+01,-7.060883155054470173e+00,-1.401456385017441875e+01
-1.617813602959362740e+01,-4.101298587838600795e+00,-1.710991288742862793e+01
-1.560079657434996037e+01,-1.744192923407217988e+00,-1.748017107201827258e+01
-1.467590912557325211e+01,-8.720118564163348296e-01,-1.936109269264674282e+01
-1.343483125676942080e+01,-6.434548088955880374e-01,-2.091681018169935413e+01
-1.202291081808109396e+01,-7.742668158329801820e-01,-2.228078192160764814e+01
-1.054297113288512122e+01,-1.153065707825663200e+00,-2.361726110912068322e+01
-9.159901748440450575e+00,-1.812682002458135155e+00,-2.494187679115819378e+01
-3.874206639661153417e+00,-2.129759652048592855e-01,-2.552777971310411687e+01
-1.507534988701639378e+00,5.490378864531315628e-01,-2.533653450539515006e+01
8.886509851638457747e-01,7.851350983109384174e-01,-2.534486690075650728e+01
3.323224710793270642e+00,9.015167779692774275e-01,-2.527416747479515635e+01
-5.971047470342647046e+00,-1.404822822045810327e+00,-2.588455732798578168e+01
-7.875685600918465923e+00,-2.731475142774943077e+00,-2.615048915084680203e+01
5.773628805171838074e+00,9.105554153449055832e-01,-2.520934782667448815e+01
8.215652398909139009e+00,1.138574608401196286e+00,-2.493000507656112319e+01
1.079691366311494427e+01,1.269054968025393748e+00,-2.453763891695833621e+01
1.306093288385338091e+01,1.387909474874058802e+00,-2.393315985453862282e+01
1.493555054672768989e+01,-1.409218881353222486e-01,-2.382124054887143672e+01
2.101638611452370498e+01,2.368216330739631701e+02,3.588767536337108766e+00
1.877403685012443191e+01,2.382094153739576825e+02,4.630032274081415267e+00
2.332029781753384157e+01,2.373287800083016919e+02,2.308603350291516421e+00
1.393955016556358828e+01,2.391596019525328529e+02,6.963108958323541486e+00
1.645288778705014821e+01,2.397722851553693317e+02,5.724643138686225541e+00
2.664194114792589119e+01,2.366963884835514023e+02,-4.791186948838856985e-01
2.534836005280193660e+01,2.381565622511071183e+02,9.006958781193628027e-01
2.724587956683806311e+01,2.386088765979777691e+02,-1.069653114360164636e+00
2.830242686427051524e+01,2.388967738116739667e+02,-2.990531828341222997e+00
2.879561417012522639e+01,2.396370381685084112e+02,-5.014497741756043681e+00
1.905482040407743227e+01,2.446001718391302120e+02,-1.390018355827966445e+01
2.082884751550092517e+01,2.450140768244688729e+02,-1.307508266899597515e+01
1.608434538150742199e+01,2.467252858954230419e+02,-1.515200695023827038e+01
1.812970083535903143e+01,2.464493958282306494e+02,-1.433463551188195950e+01
6.957680367233955110e+00,2.469399137660417978e+02,-1.772444428530613081e+01
4.608539547922301693e+00,2.470917934568908265e+02,-1.805158340314831023e+01
2.132314390870860166e+00,2.472526316293792661e+02,-1.815492682274133429e+01
1.456406687343547546e+01,2.481001006007429339e+02,-1.572072030780709895e+01
1.254275839246810520e+01,2.483727948181389422e+02,-1.639133519155964791e+01
1.046153091935679669e+01,2.486697043945333121e+02,-1.697963757517198147e+01
8.334082304027408128e+00,2.490027003837351174e+02,-1.746416404668565292e+01
-1.127939203037513494e-01,2.475038523560941144e+02,-1.792189136045018927e+01
-2.112709154848689153e+00,2.478515906117037275e+02,-1.726022932968995960e+01
-3.824260674001459748e+00,2.482148035610973693e+02,-1.620459518276276256e+01
-5.209449535095675543e+00,2.488433044631219389e+02,-1.483291399235416108e+01
2.704925203698036285e+01,2.406196087694529524e+02,-9.077380852150561452e+00
2.533416221509761357e+01,2.416143757231957352e+02,-1.041320083143519426e+01
2.858068220700371853e+01,2.402709884257567126e+02,-7.013461918718278731e+00
2.447047568669485429e+01,2.436343197293996639e+02,-1.100966434358769419e+01
2.277370777449519323e+01,2.448204988350436793e+02,-1.205548199048935842e+01
-9.679874243375854448e-01,2.412083374517233665e+02,8.776605327749305019e+00
1.148481276924735006e+00,2.407612216930103557e+02,9.657887674060180672e+00
3.573018885254493071e+00,2.406369222772061391e+02,1.031847603703918992e+01
-2.447122571826747528e+00,2.428546465036736208e+02,7.866931442549976339e+00
-5.155601327835362291e+00,2.453182629686495488e+02,5.291599739353509690e+00
-4.218653919114759177e+00,2.435528880626366970e+02,6.277827131037003738e+00
-8.682653788710137377e+00,2.484616367533322432e+02,-7.826283818482407284e+00
-7.516089119206001534e+00,2.462601723936475651e+02,2.281787478722386631e+00
-6.195131671768396409e+00,2.468643413508089566e+02,4.164533877529935424e+00
-8.355400993804797949e+00,2.477402954510289419e+02,9.169849531435447787e-01
-9.107028825342757372e+00,2.488079126225516120e+02,-2.701125054326406705e+00
-8.831163166282308907e+00,2.493189288224567122e+02,-4.680792468163694764e-01
-9.004454413870064400e+00,2.501327887562600836e+02,-6.437611576051638806e+00
-9.201804992578978215e+00,2.504509122566505255e+02,-4.307973157327962710e+00
-8.083246705681627731e+00,2.493367879874083712e+02,-9.756256637262282538e+00
-6.277258746244548604e+00,2.498867309922233915e+02,-1.343662811645684485e+01
-7.332750610603598673e+00,2.502609320189171740e+02,-1.157986888383524260e+01
6.012294923195605989e+00,2.405038538798325192e+02,1.070373041913485679e+01
8.186819507550932684e+00,2.407574405877508923e+02,1.040659300288261591e+01
1.205916504915125032e+01,2.405537379595259040e+02,8.143032360003751080e+00
1.029915843775191675e+01,2.414205368174276032e+02,9.392781718632264187e+00
1.792280077135534100e+01,-1.689158970210139721e+00,-2.187342297545179548e+01
1.663176630675953760e+01,-1.738580082859110476e+00,-2.325509535879668022e+01
1.989178757856599589e+01,-2.972104438385223535e+00,-1.917892008211882171e+01
1.907805142974335411e+01,-3.327991056696290695e+00,-2.086417616168115430e+01
2.160839829103352727e+01,-4.537647783592136719e+00,-1.317650869775490818e+01
2.103941509057647252e+01,-4.321658034110186009e+00,-1.545429335360743295e+01
2.184576077249554515e+01,-3.659858719127550231e+00,-1.126570249025303383e+01
2.044806074205096991e+01,-4.235798090410281880e+00,-1.767072227413387253e+01
2.193164489872767575e+01,-2.910820292190274827e+00,-9.279824086804810079e+00
2.221680191489740963e+01,-3.408912398672146793e+00,-6.949259685891151506e+00
2.248592940918340588e+01,-3.888481423269031012e+00,-4.414407092708230174e+00
1.316731434108901411e+01,1.819814382448202039e+00,1.719270170046983282e+01
1.110990942170458595e+01,1.090648482692724741e+00,1.896649598357566191e+01
1.508465704795497686e+01,1.192659194225118569e-01,1.627811097421431441e+01
2.270677933158337680e+01,-4.486197279861725562e+00,-1.576930838296878967e+00
2.246774793321996100e+01,-3.986474012657732047e+00,1.424941690121952931e+00
2.207379149275211461e+01,-3.971638773421613422e+00,4.758293618765897293e+00
2.130747642433581746e+01,-3.610887293575238743e+00,7.534849440552104483e+00
2.032769873492750179e+01,-2.987339037871716840e+00,9.929279152987760426e+00
1.995175031677058541e+01,-4.251716462000429075e+00,1.233149553422616407e+01
1.858428666902067050e+01,-3.193395978752801678e+00,1.408845044068429075e+01
1.730652958063117808e+01,-3.704574223670473287e+00,1.661405024901882399e+01
1.550022058249201251e+01,-2.053799410225255251e+00,1.754560274589540114e+01
-7.566527742575637205e+00,-3.289138004944796023e+00,1.414761830232190931e+01
-9.869459260545475843e+00,-3.056590099259121729e+00,1.403965527535794777e+01
-4.167751906414977725e+00,-4.935585511267490233e+00,1.457069829621830337e+01
-6.299301981822811314e+00,-5.408885982638565793e+00,1.443630175618520894e+01
8.452337784460354442e+00,9.990369137566554869e-01,1.949040253605608086e+01
6.783541248959679137e+00,-7.195966589338604891e-01,1.961409111690775120e+01
4.808414261695927117e+00,-6.508423683537007953e-01,1.842360000749805238e+01
3.670359778206413459e+00,-2.381545514042083589e+00,1.775778054693648400e+01
1.811386254442467703e+00,-2.504958374286404776e+00,1.643373952019857853e+01
1.153396238447838229e+00,-4.788576651107952387e+00,1.606230229839271573e+01
-6.791374425515765978e-01,-5.605672406723285484e+00,1.530897212797729523e+01
-2.704165052084540832e+00,-6.466652925824861065e+00,1.490321414181236648e+01
-1.874159243863736179e+01,-5.511108092748230547e+00,4.073879432084183350e+00
-1.846698767944383945e+01,-5.712459099452871669e+00,6.196332218778403345e+00
-1.806142784061459139e+01,-5.738769321975350834e+00,8.225910375986870804e+00
-1.745152702812023193e+01,-5.737332143219376235e+00,1.041067989725920029e+01
-1.309332768501238320e+01,-4.882174333237674801e+00,1.423520530504103476e+01
-1.511158556784551621e+01,-5.273094017946956313e+00,1.337951637306485964e+01
-1.095316406516600694e+01,-4.947269990481437674e+00,1.462903580405478721e+01
-1.684901758064751931e+01,-6.196494325269988224e+00,1.243677891715952910e+01
-1.965750331600678891e+01,-7.032812482726951586e+00,8.310371241381862006e-01
-1.985835391169138120e+01,-7.392259384841153746e+00,-1.126730491185130134e+00
-1.959992618517454588e+01,-7.456929179650895634e+00,2.930066491636623471e+00
-1.996851459176605914e+01,-7.953161785819705898e+00,-3.291680723630388883e+00
-1.987716206149364950e+01,-8.606928454424869201e+00,-5.469272388775118898e+00
-1.958415520576187419e+01,-9.215861265906282185e+00,-7.641620967455377667e+00
-1.886483939910914742e+01,-8.842694175432740167e+00,-1.013394159905403669e+01
-1.809085279129422830e+01,-9.072556075120541408e+00,-1.243093638328055306e+01
-1.664450950420276598e+01,-7.006706180474490786e+00,-1.634171539695841346e+01
-1.726906663294233368e+01,-9.293131895535886144e+00,-1.472089061015275746e+01
-1.616212054090711092e+01,-5.532550271714794299e+00,-1.851643203867671872e+01
-1.562235929507589205e+01,-3.051011347015754271e+00,-1.908998046086411193e+01
-1.473509210802661329e+01,-2.520314540473834519e+00,-2.080318244239233394e+01
-1.343262428714105283e+01,-2.493608306272665054e+00,-2.224481092366796275e+01
-1.196973697700508410e+01,-2.638246604405229068e+00,-2.353256053926466507e+01
-1.058182071034211091e+01,-3.146572708514308925e+00,-2.491041569296782399e+01
-9.591632820344269561e+00,-4.282427778565771170e+00,-2.626999388432449223e+01
-4.091816548605407888e+00,-2.344382259594002704e+00,-2.676611602142522628e+01
-2.142760279157590375e+00,-1.324527494686985385e+00,-2.639598740547896227e+01
1.461483644767191947e-01,-1.198531931443541865e+00,-2.643679772701207042e+01
2.659882724833927625e+00,-1.076011676386473326e+00,-2.635957908980105913e+01
5.219932729851114672e+00,-1.157840362405700319e+00,-2.630118574618597904e+01
-6.095772295967563537e+00,-3.504989569493232260e+00,-2.709604317671881546e+01
-7.855499319201484809e+00,-4.966676201711617722e+00,-2.739285716432356566e+01
7.790606384230576609e+00,-1.219992798739266249e+00,-2.615817517586729934e+01
1.012122758733325867e+01,-7.355632087777106420e-01,-2.562377605426930671e+01
1.280904641116494247e+01,-7.663789260679951809e-01,-2.503673508382971136e+01
1.496908644166381919e+01,-2.195070366565991193e+00,-2.471469518710480884e+01
2.157977321926365732e+01,2.392124376973572453e+02,3.409917164509380427e+00
1.928449386401067756e+01,2.403933094170091351e+02,4.531589237249882274e+00
2.387607369810080371e+01,2.398441097682658381e+02,2.179030155855857132e+00
1.430393818753631408e+01,2.415131322415823831e+02,6.966927544885674450e+00
1.684656757935257687e+01,2.419924714616927588e+02,5.680158743706268609e+00
2.595661464968667076e+01,2.403677216304214994e+02,5.062139105870926414e-01
2.749413176920138113e+01,2.408429849442540558e+02,-1.361979401742582363e+00
2.849447803172360238e+01,2.413143754684131750e+02,-3.398227962987746320e+00
2.898271898554980908e+01,2.420173475299610004e+02,-5.409379187635213526e+00
1.994046734164266255e+01,2.473172053932335359e+02,-1.355039344055294848e+01
2.203918837282672172e+01,2.469182868089275189e+02,-1.249189997693689591e+01
1.610478835332752467e+01,2.494105527326165088e+02,-1.520228159499958664e+01
1.791455635981672145e+01,2.485282119746697163e+02,-1.447444739799830771e+01
6.093711186888132403e+00,2.491492385952982715e+02,-1.786605470693870146e+01
3.546202143656028483e+00,2.491076061237591261e+02,-1.814925150832240064e+01
1.106742635213919357e+00,2.494801276625509274e+02,-1.810908259374857465e+01
1.406778170574312625e+01,2.502534511726569519e+02,-1.592261771496781719e+01
1.192352596581103086e+01,2.506230824489482814e+02,-1.661032540235086330e+01
9.748935490231517065e+00,2.509975958018558231e+02,-1.717191962803520155e+01
7.524518100762943362e+00,2.513826205514425283e+02,-1.765849953974455033e+01
-1.006977795546617926e+00,2.496590174392306096e+02,-1.769019292418550293e+01
-2.996613301944085705e+00,2.499349119173441807e+02,-1.681214260486196466e+01
-4.525775456498845273e+00,2.504516374244250585e+02,-1.563882354546776554e+01
2.831900572314918207e+01,2.424803059305603767e+02,-7.586191595417437483e+00
2.673082720491723308e+01,2.431476553039561850e+02,-9.364223371721910993e+00
2.617657176153213783e+01,2.453573205520699787e+02,-9.868201398853610584e+00
2.423259753644511250e+01,2.461909864229155005e+02,-1.120878712841184566e+01
-3.161407420936024337e-02,2.429818351028942232e+02,9.277801942425757176e+00
2.311962168548285845e+00,2.426704845607208654e+02,1.010321132703258584e+01
4.793453822939499176e+00,2.426238642479935663e+02,1.066902865669827349e+01
-1.355986567226156403e+00,2.448038652475954393e+02,8.673113459303010586e+00
-3.372457693444777860e+00,2.453020400843372215e+02,7.115380086739932608e+00
-4.464328134174234464e+00,2.475310100696249833e+02,6.207821622949467155e+00
-8.588816595869044335e+00,2.511711014891856451e+02,-8.392719448335348886e+00
-7.304246087427216594e+00,2.485709249863718640e+02,2.876098703037036852e+00
-5.958918471604700784e+00,2.489635216294943802e+02,4.712914117500356603e+00
-8.088353968955729556e+00,2.501523088708413241e+02,1.701435147987648833e+00
-9.148752740722029486e+00,2.510276379690581621e+02,-1.992056763215639847e+00
-8.773649077264920493e+00,2.516873472431243783e+02,1.693833179420423107e-01
-9.093660705721323012e+00,2.524218533298591183e+02,-6.343072568178151016e+00
-9.344699382298001566e+00,2.526164850625653457e+02,-3.707132736664503270e+00
-7.947490105408380856e+00,2.519903364834476065e+02,-1.038908977019831070e+01
-6.902996736322881688e+00,2.521558951950424614e+02,-1.257752050798451648e+01
-5.643498264458706615e+00,2.518295916576956301e+02,-1.447264635802969934e+01
7.233971996288879325e+00,2.427844352764215898e+02,1.078615589920687512e+01
9.512956025464339049e+00,2.431892545444147231e+02,9.889753667909538137e+00
1.217827061972085545e+01,2.430694689655604179e+02,8.267202390456311889e+00
1.780558709848153143e+01,-3.841483275277898457e+00,-2.251801566761740503e+01
1.647615699263321787e+01,-3.537639607833598987e+00,-2.394961418219418192e+01
1.983627848949526040e+01,-5.169014092814393280e+00,-1.931715213120727270e+01
1.888350580668280188e+01,-5.099591928266356433e+00,-2.114178585262564525e+01
2.222502114686444941e+01,-6.011052013333558541e+00,-1.068732889975556333e+01
2.191163885016639057e+01,-7.128678015936630530e+00,-1.229802291227417044e+01
2.131385131468708138e+01,-6.449780604727544997e+00,-1.446477458322943299e+01
2.057258968197962901e+01,-6.021071913398792219e+00,-1.674874421279143988e+01
2.232524186190464377e+01,-5.114227924793247837e+00,-8.722840740861924402e+00
2.267323551890763866e+01,-5.793966019977233373e+00,-6.249934591323730082e+00
2.299314512109141617e+01,-6.316528657653222467e+00,-3.735728950023892825e+00
1.341322339064283042e+01,-3.900126224106328365e-01,1.840690075102776291e+01
1.175853980418794720e+01,-1.247711088256145295e+00,2.006890861652731672e+01
9.308323617175750186e+00,-7.692030643382103960e-01,2.028822704394315224e+01
2.309874919404867910e+01,-6.209277322583011127e+00,8.863482780824742946e-01
2.327225654385251374e+01,-7.228051995073988323e+00,-1.326361144469490938e+00
2.281159964234253579e+01,-5.591075545361450239e+00,3.395140609411793520e+00
2.216223887098315970e+01,-5.544094377177559707e+00,7.268854955237333826e+00
2.292723532973335665e+01,-6.895336850445167087e+00,5.558169542925419648e+00
2.123829106705102276e+01,-5.333042786323305862e+00,1.021968467158771432e+01
1.905666305905826619e+01,-5.347324223227059470e+00,1.531999011834050606e+01
2.049112480738482844e+01,-6.397323361035633482e+00,1.337732528448290736e+01
1.751784323687064671e+01,-6.192360629966694674e+00,1.813302491330748722e+01
1.572767355615869889e+01,-4.472373700243990946e+00,1.910674491098954775e+01
1.377500691198061844e+01,-2.811764397004032467e+00,1.977872148334301272e+01
-8.700109883743863293e+00,-5.050208817895590840e+00,1.445479497858075746e+01
-4.815379682499564495e+00,-7.179149429165833318e+00,1.468999797576486088e+01
-7.816294433519434648e+00,-6.859259466214824741e+00,1.463185494476909554e+01
-6.626829229607071881e+00,-8.271705807224517315e+00,1.465758398665071383e+01
7.593637970459679920e+00,-2.772498247041304431e+00,2.072516342514218479e+01
5.518856065981754710e+00,-3.012838675585597592e+00,1.936519621789860679e+01
4.520253446222738170e+00,-4.956713060211729527e+00,1.845857085296996658e+01
2.896581383423181055e+00,-4.254427658006894042e+00,1.716896708816011952e+01
8.245395711373433301e-01,-7.116568736625465519e+00,1.582888671941752889e+01
