1.449784226196409698e+01,5.058316355899358996e+01,9.493805099655379109e-01
1.483325493357691016e+01,4.963484009658486684e+01,-2.194560738795348520e+00
1.476691551257047053e+01,4.899855243356176970e+01,2.953166536941331799e-02
1.440939164040425524e+01,4.917170508515579286e+01,-7.216000977936241512e+00
1.480745695391554761e+01,4.838705031396682443e+01,-5.375248163899816412e+00
1.496898203704116881e+01,4.811927721736543617e+01,-3.486484606953854204e+00
1.423285554594492197e+01,4.789657890020112063e+01,-8.654969171079924806e+00
-4.386969501745465294e+00,5.077739439143590516e+01,6.037795504681668035e+00
-5.959008604583621249e+00,5.061697119568179914e+01,4.920902226150225545e+00
-7.244438166700318149e+00,5.031300032566855407e+01,3.701886583744737891e+00
-8.344744587207326703e+00,5.006622361106769858e+01,2.325995807623584710e+00
-9.215994514645036162e+00,4.968474249756724248e+01,9.438531487892376504e-01
-2.531083873814019114e+00,5.054880420273804020e+01,7.134919904436912930e+00
9.215749847576937270e+00,5.545307421425525263e+01,8.754260426036118758e+00
5.907900826331861310e+00,5.272206537978547658e+01,9.969062442848759531e+00
7.586251338781304199e+00,5.377551713645681275e+01,9.821992639127692826e+00
4.129544226447549704e+00,5.247489077750304887e+01,9.323649403946241421e+00
9.230537977935680871e+00,5.363334700502821306e+01,9.088996059014391449e+00
2.712361988648886779e+00,5.147180617590879592e+01,8.823647714710261880e+00
6.655027118680152398e-01,5.099081106736161928e+01,8.214438597678558551e+00
-8.668959418115029791e-01,4.986420832839121431e+01,8.006651382590305843e+00
-1.047778628898318232e+01,4.834927474441684581e+01,-1.160493462900273443e+00
-1.082845345991549735e+01,4.849829459390974762e+01,-2.793799590615403616e+00
-9.983899220714018696e+00,4.816104490563463969e+01,3.771698291418417170e-01
-1.095486200224393869e+01,4.889339467514190574e+01,-4.322285355042485122e+00
-1.139332895520859523e+01,4.752653882675406294e+01,-5.333038195343995369e+00
-1.177007517325047914e+01,4.623986120608958572e+01,-6.483813257592411006e+00
-1.145500743561841261e+01,4.685379214495287670e+01,-8.118216056083262799e+00
-1.092965211808931514e+01,4.758418702464479111e+01,-9.683773940153463045e+00
-1.010739851576714088e+01,4.833261433607577828e+01,-1.109857310047884482e+01
-9.067080374229654183e+00,4.877160728359723407e+01,-1.230155599793343946e+01
-7.687524696111903921e+00,4.876048978080012830e+01,-1.339789024255933825e+01
-6.038867295848437067e+00,4.866939183932339574e+01,-1.430304487064717378e+01
-2.860828373459316509e+00,4.988767519004403539e+01,-1.513070453638182400e+01
-4.154027102725205367e+00,4.850310288688530136e+01,-1.510788551769327270e+01
2.305577681245215338e+00,4.969613517988034346e+01,-1.606913942451596000e+01
3.855999879810129372e+00,4.983182932453735248e+01,-1.608884672368429136e+01
6.395932191100897057e-01,4.974772410402823652e+01,-1.591813218884081138e+01
-1.055943561838013522e+00,4.983121140015003903e+01,-1.561577764366392529e+01
5.541643810542868920e+00,4.968968325390432028e+01,-1.607124774306157988e+01
7.272793915783413610e+00,4.952724580450222902e+01,-1.588795895706861216e+01
8.891783647137433633e+00,4.918857208491817801e+01,-1.538754724138233243e+01
1.036771434848810713e+01,4.877199457021521312e+01,-1.447187592079625773e+01
1.164539199032382655e+01,4.836959431445694690e+01,-1.326413779877577070e+01
2.125489764766978951e+01,2.144785384156183454e+02,-6.661819965212105288e+00
2.051761747635428890e+01,2.160349378900170905e+02,-7.450983728217613233e+00
1.441456790828240742e+01,2.142669367494029018e+02,2.485561835540723408e+00
1.780083552473188391e+01,2.142470182707946833e+02,1.172495495285984290e+00
1.935090432488813406e+01,2.145134153709518614e+02,2.896636188215042651e-01
2.065576647196340687e+01,2.149995886262891531e+02,-9.779082370495877363e-01
2.202205463921830386e+01,2.148684434340727876e+02,-3.865702569017010148e+00
2.168927755193686835e+01,2.159334921386729036e+02,-2.609716467663102613e+00
2.176493441425245834e+01,2.156611629709657336e+02,-5.693291670510438607e+00
1.621729596545774044e+01,2.151899712162484093e+02,1.922276007648656915e+00
1.237685286038382060e+01,2.141084489326071889e+02,3.180262397474383107e+00
1.345572250524507574e+01,2.199709558501656375e+02,-1.148664775652829917e+01
1.074705296781612773e+01,2.207515785759857181e+02,-1.251774992140007825e+01
1.242849234855639473e+01,2.212048900725742442e+02,-1.188804620561572634e+01
8.870299553210195143e+00,2.222128267061668794e+02,-1.312038185106344912e+01
1.019067515078527997e+01,2.222870311618364667e+02,-1.271850305602441722e+01
6.362550587196473373e+00,2.228536598155214392e+02,-1.357446977003879596e+01
7.875809851829657759e+00,2.234542240502467507e+02,-1.334705915441418966e+01
5.530393695765532414e+00,2.243576258590959753e+02,-1.363860849642541240e+01
4.020032242117792975e+00,2.244296288872286027e+02,-1.365185967230406305e+01
2.753243562194086280e+00,2.234285970257396343e+02,-1.352074229880408041e+01
1.352697110760864518e+00,2.243488304704222287e+02,-1.327648378306064814e+01
9.815987389018232534e-03,2.234023996625558937e+02,-1.278822370193109492e+01
1.923013548052706767e+01,2.168860868128643915e+02,-8.514220756365372011e+00
1.747486564172747947e+01,2.185290866252391311e+02,-9.628487584650901709e+00
1.881120279069902423e+01,2.185370282088934459e+02,-8.825929821881000947e+00
1.667723595177057661e+01,2.200344605285287116e+02,-1.004928071962289948e+01
1.520155323747680498e+01,2.205516758049583359e+02,-1.074593353119734118e+01
2.554688617486611690e+00,2.163504426640572547e+02,4.273934602817163864e+00
4.227599299284682033e+00,2.154947447947791943e+02,4.866937652181739793e+00
1.170902212135139564e+00,2.172895560284589465e+02,3.574510770756198497e+00
-1.588974829080918028e-01,2.182860914613505940e+02,2.792190890830575256e+00
-2.520412446103279080e+00,2.197814935089422477e+02,9.556907809883981031e-01
-1.314918355885929202e+00,2.193398806815618514e+02,1.989258227658503131e+00
-4.950116933696399713e+00,2.224099411250244884e+02,-8.130542715915098029e+00
-4.168065857881821046e+00,2.227257067494200840e+02,-9.541988943969514025e+00
-5.418937198413175338e+00,2.232943793959588561e+02,-6.706713232002925906e+00
-5.038296059205315203e+00,2.220950177806539045e+02,-2.434617521179713862e+00
-4.472640060260168582e+00,2.213699929290290811e+02,-1.169800368513470801e+00
-3.593836346911153612e+00,2.208448643024525495e+02,-6.783836434748735655e-02
-5.419553819716853127e+00,2.229606338782700448e+02,-3.752006466162423948e+00
-5.617117570370794510e+00,2.240173384550951710e+02,-5.219485792888047371e+00
-3.177186293666153460e+00,2.232211149063355151e+02,-1.068721845364155243e+01
-2.254484344987389477e+00,2.240934795030246391e+02,-1.150004614352906174e+01
-1.168226605089628833e+00,2.247254570930698492e+02,-1.222767045283613996e+01
7.558747665155900464e+00,2.155896918940400724e+02,4.872660177954472260e+00
1.083371226713762780e+01,2.151949995622335337e+02,3.809680040015653191e+00
9.260876998284377493e+00,2.165480606766548703e+02,4.432745642635300243e+00
5.918163062596024204e+00,2.165187837795015753e+02,5.077398176063585566e+00
1.231517880118218855e+01,4.679213553902320655e+01,-1.303895717302959767e+01
1.333546147286572392e+01,4.658585440026666902e+01,-1.151507418948748196e+01
1.408746112679111206e+01,4.644799264853315890e+01,-9.928527049350655886e+00
1.061174709655923820e+01,5.432435846059689766e+01,7.724300574541203446e+00
1.193072118275551041e+01,5.321237117457957311e+01,6.351164217111687549e+00
1.289777124998742330e+01,5.247967613009512888e+01,4.983464626072315440e+00
1.368334550034577113e+01,5.175265735053505978e+01,3.549867450243013423e+00
1.406903324189714866e+01,5.035390003984929308e+01,2.901808747288296075e+00
1.444287748825180984e+01,4.895009334499889064e+01,2.070049862498116511e+00
1.497518435277889637e+01,4.803183426963528291e+01,-1.569539375877082144e+00
1.502907983721777541e+01,4.692674275084527835e+01,-2.434593540094311948e-01
1.475298074739372822e+01,4.733888941451516530e+01,1.519028157218761166e+00
1.465240454281417826e+01,4.765030393732047287e+01,-6.979609001983494210e+00
1.510631287047459637e+01,4.662844921640527218e+01,-4.526428088144652584e+00
1.495724831114780429e+01,4.632672989971388233e+01,-6.277819423773461693e+00
1.520904312647770595e+01,4.641972648060578877e+01,-2.431673858191309989e+00
1.462372218702390825e+01,4.621739584439018245e+01,-8.201984161964389841e+00
-3.868218261934719848e+00,4.929336047870617676e+01,6.939752919671285269e+00
-5.493609832734723142e+00,4.911276278274789320e+01,5.986748161329323636e+00
-6.961990719406896844e+00,4.885654300830645980e+01,4.837702069255584547e+00
-8.185054106357236847e+00,4.860241297343424094e+01,3.492236088526119886e+00
-9.214649083191432055e+00,4.830665921928556372e+01,1.968184554873609216e+00
-2.426940731217532843e+00,4.862317250065740382e+01,7.837507242093245452e+00
7.762346043173492305e+00,5.224094243423900252e+01,1.005518559385957644e+01
6.340007879147808723e+00,5.095370599797780642e+01,1.034976028647750468e+01
4.595442363338388958e+00,5.104015965857666970e+01,9.713619504899867252e+00
9.445895933338794848e+00,5.188396034586753558e+01,9.297002085533719651e+00
1.083013900201903112e+01,5.249557216354855882e+01,7.908799694716336148e+00
1.996562698761625398e+00,4.998100305924884879e+01,8.738039830333732993e+00
3.550189239179122325e+00,4.976064788071033718e+01,9.376249666429593788e+00
6.818427851613506618e-01,4.888664420711552339e+01,8.563283759822851948e+00
-7.702707719582750912e-01,4.782293319253057007e+01,8.365598504693949167e+00
-1.123776050240968871e+01,4.683027536594420326e+01,-2.254859346052114688e+00
-1.090178986815881501e+01,4.672191620295501480e+01,-8.127550179109164219e-01
-1.141141456459831005e+01,4.707626788217726244e+01,-3.794364751071789499e+00
-1.050225824579042566e+01,4.655026013685829867e+01,5.789366233211730162e-01
-9.851042604571873085e+00,4.671741746063310075e+01,1.968216296557216083e+00
-1.192162566034306792e+01,4.559333377552502498e+01,-4.771918688060074132e+00
-1.231900891670812115e+01,4.442258417940405479e+01,-5.943499223261115461e+00
-1.212114724319707904e+01,4.488019227372160458e+01,-7.689855344746391985e+00
-1.167198956502796392e+01,4.558001497412266190e+01,-9.326095315208995373e+00
-1.098166187328606114e+01,4.646204605742980220e+01,-1.082753187915998616e+01
-1.004148833143124087e+01,4.706372119850902891e+01,-1.213085465953779440e+01
-8.814829651568048874e+00,4.731930287690852310e+01,-1.323740116276161238e+01
-7.290595368654138042e+00,4.719480726576335883e+01,-1.425214582377772032e+01
-5.603140530917965378e+00,4.715788275016694797e+01,-1.502894114692743344e+01
-2.230790278030557516e+00,4.829876087896218451e+01,-1.576621824169626152e+01
-3.779990843213246521e+00,4.693574644165636300e+01,-1.574949927439963915e+01
1.409195552332826118e+00,4.803249482572152829e+01,-1.649439175314576289e+01
3.099351138703418940e+00,4.792828719511470581e+01,-1.665407690435495880e+01
4.584532891126684717e+00,4.824950640476680519e+01,-1.656669193038798227e+01
-4.196012757921021574e-01,4.803118751781107676e+01,-1.625995210068792574e+01
6.331473261287143828e+00,4.809827040839371648e+01,-1.651874563026464671e+01
8.053752775366731953e+00,4.775546194444666526e+01,-1.624736025554923557e+01
9.643520978605238270e+00,4.737477359674591071e+01,-1.560974912276608606e+01
1.103666556524216347e+01,4.697152490402788771e+01,-1.453844732557395503e+01
2.029336104702911570e+01,2.179966200772394700e+02,-7.651756117500067234e+00
2.138411565065993614e+01,2.173653442168777019e+02,-6.315918143867905954e+00
1.290498365204618381e+01,2.158693415303861798e+02,3.074248485282680576e+00
1.476737518453499831e+01,2.164783345935091745e+02,2.492828192330689419e+00
1.798948401484128112e+01,2.160067450715691280e+02,1.190036973501209516e+00
1.950784734545987575e+01,2.161808884435016296e+02,1.551931402548287764e-01
2.073375049575265194e+01,2.166296624827795085e+02,-1.068020426491614883e+00
2.202689072481501498e+01,2.167172812171274927e+02,-4.505495568513778970e+00
2.148762377656063904e+01,2.175585865095965232e+02,-2.189608372923759205e+00
2.197580882339623543e+01,2.180713447736133048e+02,-3.804024437074705389e+00
1.653924706677062062e+01,2.170700893169642995e+02,1.931035855236972409e+00
1.404120597273526805e+01,2.216872153982347413e+02,-1.124372534416342262e+01
1.160454714060553272e+01,2.225951715924783230e+02,-1.220584052824138865e+01
1.305028620502393544e+01,2.230061133528162713e+02,-1.163237325047479587e+01
9.380570556599575838e+00,2.239305077197506648e+02,-1.296851255222171773e+01
1.078787951983129823e+01,2.241045519707377025e+02,-1.251032943669512321e+01
7.077838375844020646e+00,2.248728790892272400e+02,-1.347054310142355149e+01
8.490463157604684952e+00,2.254009932420385098e+02,-1.323598367419564426e+01
6.038897467212951398e+00,2.261011085366881161e+02,-1.362126347399546944e+01
4.389783185487136308e+00,2.262309984745939460e+02,-1.369419095538907527e+01
2.643558204129831779e+00,2.255021134193711703e+02,-1.356796566247490432e+01
1.535731043428469889e-01,2.252551881494303245e+02,-1.287697232429529137e+01
1.181968599949954069e+00,2.265002756723946504e+02,-1.328461643698729233e+01
1.818352203765225639e+01,2.203261426286045719e+02,-9.226597426253796641e+00
1.978525372886159062e+01,2.197827113945123756e+02,-8.135104732105210346e+00
1.689088360423638946e+01,2.215906727731389196e+02,-9.932536609216207069e+00
1.562979500081361905e+01,2.223704669539876591e+02,-1.054880577705909417e+01
2.569740458362256064e+00,2.181982903927616917e+02,4.283677759294960197e+00
4.204639385531229401e+00,2.172693269655986796e+02,4.864876979914306787e+00
1.179440080520915757e+00,2.192233426371044231e+02,3.584789165579593373e+00
-1.539737168251527066e-01,2.201937344188351062e+02,2.811837925791849102e+00
-2.769469333640760311e+00,2.217792550584850062e+02,8.297397024311052860e-01
-1.528524972827511874e+00,2.210998329349129392e+02,1.848819000771371179e+00
-5.078281829553169757e+00,2.244483891444309052e+02,-8.272042505172219506e+00
-4.175848949448891290e+00,2.244856875473882951e+02,-9.733252518785052487e+00
-5.635016407456745924e+00,2.252121153479341444e+02,-6.602498095483531060e+00
-5.252057857821412767e+00,2.240200770654424218e+02,-2.474679618828805161e+00
-4.656663132582743003e+00,2.232445904754620756e+02,-1.251666466585749760e+00
-3.791494760959658095e+00,2.226102713947917664e+02,-1.859182057595631932e-01
-5.610765458832034369e+00,2.246915446837932109e+02,-3.911017408661873418e+00
-5.814001206963254731e+00,2.261315042084203242e+02,-4.894104268309236616e+00
-3.286022697786698643e+00,2.253837293199629244e+02,-1.073419718615168250e+01
-2.247802489186867092e+00,2.263389928459757243e+02,-1.160900386770496340e+01
-7.373000161367926353e-01,2.265247784658878061e+02,-1.253368743125222906e+01
7.625783794262435578e+00,2.175680885622216465e+02,4.911357463156424075e+00
1.110164888071997957e+01,2.170362358322137766e+02,3.750581357464600529e+00
9.360639734107415677e+00,2.186132421800976999e+02,4.396572268700484898e+00
5.890944120156262898e+00,2.183380804104796766e+02,5.067747117340040575e+00
1.293347915918478463e+01,4.520152285922023339e+01,-1.280194557392521304e+01
1.180341880859268855e+01,4.543472316084756812e+01,-1.430682496798656800e+01
1.387077278581953976e+01,4.488932621419559155e+01,-1.118062448641272866e+01
1.451919685440994101e+01,4.473718334832659593e+01,-9.493487016143657087e+00
1.212114254128967872e+01,5.116234374720318101e+01,6.619594345202575170e+00
1.322317703765478214e+01,5.063231185650607813e+01,4.928355785654954246e+00
1.379547542084503853e+01,4.902573326563879164e+01,4.190923806904311988e+00
1.426535783504441035e+01,4.748099080701445018e+01,3.500526185218387099e+00
1.533910888498702008e+01,4.518967480536838366e+01,-6.115348653440397797e-01
1.507735475623784893e+01,4.551707472032774149e+01,1.204761778773721481e+00
1.469169616742646944e+01,4.582889666536357254e+01,2.970411031366149146e+00
1.526181519823262889e+01,4.479115232465039753e+01,-5.784230398997616263e+00
1.538972426107733327e+01,4.495021583109246421e+01,-3.967555936189074650e+00
1.497006975037006526e+01,4.474077174841448823e+01,-7.604746180617498297e+00
1.548856628958968784e+01,4.466541049924347817e+01,-2.285255836697598575e+00
-4.432006033422339897e+00,4.760595228805647139e+01,7.236083740749073456e+00
-6.283127996272938276e+00,4.745834771495884752e+01,6.147089008929199849e+00
-7.811416928005227689e+00,4.702302648706802302e+01,4.933351081579871789e+00
-8.936066724680305384e+00,4.700294963358663836e+01,3.438546209903172723e+00
-2.464818394032599613e+00,4.688841344389970800e+01,8.135250287046723372e+00
8.018387924702507163e+00,5.055990579521676409e+01,1.029433081742561740e+01
6.940883162198066003e+00,4.917642460851385522e+01,1.064990145394752830e+01
5.260746971369050229e+00,4.939796161736740032e+01,1.017772611420026152e+01
1.088473423515246807e+01,5.071369526903356473e+01,8.302122887596045331e+00
9.504842834016736575e+00,5.014385078821840125e+01,9.614072622929619172e+00
2.538146446744057982e+00,4.829043635781408739e+01,9.114407294531481796e+00
4.219551363330882765e+00,4.810904332037108588e+01,9.858192581751453076e+00
1.192195632352241574e+00,4.719578750171973525e+01,8.774132143030357156e+00
-5.258351229154687445e-01,4.615337476156753382e+01,8.522678886461541481e+00
-1.162500570273239830e+01,4.517058491555724231e+01,-1.553026363158291900e+00
-1.186630968839150668e+01,4.525513073117258500e+01,-3.161333515324034948e+00
-1.127316125980823003e+01,4.501642268072464503e+01,-8.871489985004643586e-03
-1.072310822519796147e+01,4.506551823710873350e+01,1.580318506938716894e+00
-9.973368609083291147e+00,4.524868895820696935e+01,3.085018081156071901e+00
-1.247406345094541180e+01,4.362893640763229541e+01,-4.054186831024493287e+00
-1.283074425593689583e+01,4.278782502231462104e+01,-5.572874544271757991e+00
-1.274898957028765523e+01,4.297151078309605055e+01,-7.313269594538123641e+00
-1.241250367696737911e+01,4.352069007868385597e+01,-9.016475642806721424e+00
-1.177258681515998973e+01,4.453290746370510078e+01,-1.058829131742874097e+01
-1.097618879270453895e+01,4.532094789876259711e+01,-1.205213485598540402e+01
-9.900421293306834514e+00,4.569923612955517456e+01,-1.319901296904441956e+01
-8.488750345413510701e+00,4.581221765764121301e+01,-1.417976787721913468e+01
-6.832799545994129531e+00,4.549036281505993884e+01,-1.518061356392551886e+01
-5.152633388291665284e+00,4.570676016263951169e+01,-1.576507104776050738e+01
-2.243204427017090552e+00,4.653418928039081948e+01,-1.632722415653433501e+01
-3.688978177050403318e+00,4.497703640001168424e+01,-1.651148080295216047e+01
7.981534354679098442e-01,4.630001079629931837e+01,-1.699609828483153606e+01
2.378276493419684279e+00,4.630314803121308387e+01,-1.715819453318763266e+01
4.035574966295532917e+00,4.613414741957456044e+01,-1.727965621331474821e+01
5.346431546137832669e+00,4.685917837453041557e+01,-1.700753420888070977e+01
-7.351711314499791428e-01,4.627865109276268640e+01,-1.677544067831075836e+01
7.071100203021348563e+00,4.639880480783813255e+01,-1.698124800716042770e+01
8.795260942400339843e+00,4.599279305280430208e+01,-1.661929535405704073e+01
1.032572710607954747e+01,4.561523858614742721e+01,-1.578355799475506061e+01
2.103506730870093833e+01,2.195495142712690040e+02,-6.905852044905987697e+00
2.180267157444194481e+01,2.187641382981847187e+02,-5.458032574708203910e+00
1.322062777457991523e+01,2.177561831612254082e+02,3.071376212300659603e+00
1.500608216858959310e+01,2.186535044114498589e+02,2.511492992646100930e+00
1.834120287152764917e+01,2.177848838375288096e+02,1.045738011437051362e+00
1.976279027635084873e+01,2.177109559362975233e+02,-4.697111751063332008e-02
2.066318514671489837e+01,2.185883543659197699e+02,-9.806708565242779896e-01
2.169171265641940494e+01,2.192188112766836525e+02,-2.719634453530070495e+00
2.196421781199533996e+01,2.200590256217399769e+02,-4.365494038230084861e+00
1.685763943398107756e+01,2.186765278835882782e+02,1.888205984693541950e+00
1.454188521677323109e+01,2.234763357368513255e+02,-1.103181283696150672e+01
1.220361916003595049e+01,2.244267445343269856e+02,-1.198011465175969548e+01
1.362587626474994806e+01,2.248471814331069254e+02,-1.142002197665150831e+01
9.971502586297287252e+00,2.256392116705106616e+02,-1.281597917782031004e+01
1.140904309831284635e+01,2.258899542626755590e+02,-1.230391253830380194e+01
7.435383433332422243e+00,2.269886554819969717e+02,-1.346460255113302651e+01
9.091497106484540680e+00,2.270569610317396609e+02,-1.311075089575326302e+01
5.717171714859652809e+00,2.277143024326425120e+02,-1.368287248362916131e+01
4.042556485089448870e+00,2.281041130988353984e+02,-1.371716007482741873e+01
2.785208484162048137e+00,2.272295752379205851e+02,-1.363015970146370393e+01
1.697438953372696346e-01,2.279518516873769727e+02,-1.302413689225158677e+01
1.747149295811077252e+00,2.283453652787041506e+02,-1.349146602211882850e+01
1.934175298807091536e+01,2.212899130529621630e+02,-8.481693838906616989e+00
1.821504082840326788e+01,2.222994518100280743e+02,-9.225045110128650805e+00
2.066471686291126986e+01,2.216057730313617924e+02,-7.407151673754318821e+00
1.704269992412287493e+01,2.233990489296572832e+02,-9.871962338175372054e+00
1.596012446551370445e+01,2.243061323442360617e+02,-1.039561298892556351e+01
2.604319269197603148e+00,2.200210963390121037e+02,4.282734833020114706e+00
4.204126151919702181e+00,2.190894729750621650e+02,4.869586505906177365e+00
1.159009008218149006e+00,2.210963202492694109e+02,3.599230754145985145e+00
-3.310485519396841880e-01,2.220180288901179892e+02,2.734279095786121161e+00
-3.023904204923756112e+00,2.236759384363121796e+02,6.894862676707518290e-01
-1.759357271515956000e+00,2.228351953605405242e+02,1.737560361466577774e+00
-5.400544978051051714e+00,2.265387125006530482e+02,-7.945581315421482493e+00
-4.530813975658233517e+00,2.261298025099999052e+02,-9.394250778381600497e+00
-5.814301194871319467e+00,2.269379419915300389e+02,-6.371398818623365656e+00
-5.562736954829176739e+00,2.258244550701782032e+02,-2.996483882983010716e+00
-4.947351412875022447e+00,2.251522132628832367e+02,-1.434929794886873111e+00
-4.080086829212341115e+00,2.244036802075078754e+02,-3.270729156238942892e-01
-5.821403610133941697e+00,2.274374784922717083e+02,-3.661103491479824612e+00
-6.007441386639314373e+00,2.281515282988806348e+02,-5.228961046345149910e+00
-3.729557257614423804e+00,2.272119163655851253e+02,-1.044877627446692614e+01
-1.466172055739320967e+00,2.280141982163843863e+02,-1.219241222833773364e+01
-2.888987142113094819e+00,2.283278331591407095e+02,-1.124289995504473971e+01
7.577162956455032017e+00,2.194586947644749557e+02,4.947461898876913011e+00
1.135292917552546932e+01,2.186796253648735160e+02,3.670913881973458359e+00
1.088189073818219477e+01,2.203186358596572632e+02,3.874731610015537342e+00
9.051101915208491278e+00,2.207280069915734657e+02,4.540498040958343751e+00
5.869146425278367829e+00,2.201258645329794490e+02,5.142486831476382747e+00
1.250735387471898008e+01,4.383692789834412906e+01,-1.412283911414134252e+01
1.348480826417530665e+01,4.360618516020258539e+01,-1.255762451526444323e+01
1.117583976541902047e+01,4.428472814052986450e+01,-1.557700064897479919e+01
1.440042462829588743e+01,4.309220311953458804e+01,-1.070051886861378421e+01
1.495494146981589267e+01,4.320510204234557250e+01,-8.796723377316581605e+00
1.286582588147507167e+01,4.925283917584761184e+01,6.053541971655157283e+00
1.179828106308952052e+01,4.927358686423065137e+01,7.650774580293884242e+00
1.354571825262147655e+01,4.757298090055223838e+01,5.376657538472763065e+00
1.410859646095885012e+01,4.595663117744931014e+01,4.810401296162490681e+00
1.571614476986885478e+01,4.326906548841657241e+01,-1.160847114162272486e+00
1.551423303035882739e+01,4.368851626665275489e+01,6.184803678780950165e-01
1.517328152834857491e+01,4.399668699603682853e+01,2.442157998990889922e+00
1.468181171854726585e+01,4.428816105309658724e+01,4.210082079250106801e+00
1.559071640421225524e+01,4.323643428906581221e+01,-5.013262062947054787e+00
1.534795766150060103e+01,4.323430169406583445e+01,-6.898395088812799614e+00
1.573489593453006918e+01,4.313906317966348070e+01,-3.152944503063109583e+00
-3.840231594403832105e+00,4.589178806338401273e+01,7.955035996684500788e+00
-5.471352953682865561e+00,4.587523551875000294e+01,7.345747429675718365e+00
-7.026402545782623577e+00,4.569814966810503165e+01,6.472141350929057069e+00
-9.090245316721341950e+00,4.537931411062578491e+01,4.451780748144194888e+00
-8.303628798469523176e+00,4.502135565489982127e+01,5.707321784926655539e+00
-2.190437130223287454e+00,4.504149544707991026e+01,8.420136831743690209e+00
8.566214933549211707e+00,4.859136114727544964e+01,1.047132275913111243e+01
6.181320702872904249e+00,4.767339037994076989e+01,1.075572136665883960e+01
1.045217730533504330e+01,4.887297992832532145e+01,9.222409471673053361e+00
3.087426683098307478e+00,4.650072755412043080e+01,9.457973422799220486e+00
4.829157477420455535e+00,4.665273021168997047e+01,1.031328464166821846e+01
1.402752610115378218e+00,4.550026516411196553e+01,8.939202815945932912e+00
-3.464503054223566636e-01,4.437034698085341233e+01,8.598830306826620529e+00
-1.197340406866112872e+01,4.350222232459071847e+01,-5.913214188323578924e-01
-1.228572743008251678e+01,4.356112402642276038e+01,-2.302951142160850395e+00
-1.152630019417782492e+01,4.351414760887206512e+01,1.102868952349659537e+00
-1.091900262226454288e+01,4.360201950984719588e+01,2.787181227788032345e+00
-1.009278310443037618e+01,4.365728345358087381e+01,4.363062439776768997e+00
-1.290594142686488155e+01,4.192037920856438404e+01,-2.788710060198697605e+00
-1.318087135574321778e+01,4.157618487823611986e+01,-4.322572823176871637e+00
-1.339430505246717829e+01,4.116020258956422140e+01,-5.990991724429912679e+00
-1.328730923386610385e+01,4.122393299168362546e+01,-7.586083685977916602e+00
-1.302037172771601448e+01,4.145282587875158242e+01,-9.167282765462070770e+00
-1.241787799230487011e+01,4.263605643957436087e+01,-1.057767468763686836e+01
-1.169594607210607151e+01,4.354532667649311861e+01,-1.204946310557148692e+01
-1.083373150358792891e+01,4.398885058360997391e+01,-1.329091218931325535e+01
-9.677783100768801106e+00,4.417556142293307175e+01,-1.423735560689539881e+01
-8.298178670102238641e+00,4.429701456156868744e+01,-1.500513327965883548e+01
-7.291447017284388821e+00,4.350038555079214575e+01,-1.587736419758777728e+01
-5.625490810423153576e+00,4.411160281484728785e+01,-1.627479409747114047e+01
-1.886718163104593060e+00,4.483021578017712727e+01,-1.705896713762978933e+01
-4.664909337268568379e+00,4.305482237497659526e+01,-1.706473278717047037e+01
-2.921555431095481659e+00,4.356547640281098666e+01,-1.734273340665301077e+01
1.495871792305189851e+00,4.460391508962942453e+01,-1.770242298519320201e+01
-2.482873578102804402e-01,4.453945825796279223e+01,-1.750159811005264743e+01
3.138605313528977092e+00,4.453662117640652696e+01,-1.783509731356362593e+01
5.880556497186113063e+00,4.534822506127596853e+01,-1.750635129339890383e+01
4.772874145892053832e+00,4.428287509453326720e+01,-1.792574885760104664e+01
7.793659082229488888e+00,4.472630996537452575e+01,-1.744966094726794381e+01
9.438211203052539133e+00,4.421069471293623110e+01,-1.698759675730005370e+01
2.164369698874491377e+01,2.208883646408035020e+02,-5.951152582578533412e+00
1.302060275228853214e+01,2.196525018703808314e+02,3.157136859083525593e+00
1.451765380843501418e+01,2.207800555909182947e+02,2.740521709005312445e+00
1.627840052551295003e+01,2.203159688638093598e+02,2.144328801734232570e+00
1.799078612348562345e+01,2.198070852502567050e+02,1.360154300927105098e+00
1.931665462505509367e+01,2.193009400119525480e+02,3.483435013983764428e-01
2.012965515239062242e+01,2.204486804721496469e+02,-3.315716602913783007e-01
2.108779585320606742e+01,2.201019644999981324e+02,-1.576019941679984715e+00
2.168692140626208698e+01,2.210335071445410051e+02,-2.957786173248682537e+00
2.190326022366092218e+01,2.219800576334275206e+02,-4.510520916318021989e+00
1.498800503334581435e+01,2.252655238867583876e+02,-1.084137890827931017e+01
1.281684759293782250e+01,2.262717390182841086e+02,-1.175653379120490527e+01
1.433603808582132189e+01,2.266273667039124007e+02,-1.112315402546094845e+01
1.057267381156237818e+01,2.273531456298568969e+02,-1.261397270909869661e+01
1.194794679696436113e+01,2.277257282061542583e+02,-1.209507465386016989e+01
8.193360288546561065e+00,2.285289941856451890e+02,-1.331094418991609984e+01
6.618087623053092727e+00,2.289428536395086837e+02,-1.360964686431326243e+01
9.715792006468120690e+00,2.287191374513773496e+02,-1.288586876291864769e+01
4.870936041390351079e+00,2.294615849834812025e+02,-1.375517643246564603e+01
2.951938389369075821e+00,2.295949161144042989e+02,-1.370309634191693959e+01
1.047700106982134116e+00,2.297714963338098642e+02,-1.338167791223109049e+01
-5.440907671698980153e-01,2.295721068427042724e+02,-1.278099456613372809e+01
1.949840917132878815e+01,2.230162573378419211e+02,-8.399191366439939799e+00
1.831747610234814516e+01,2.241692979442453577e+02,-9.159510447812916567e+00
2.072073057668227847e+01,2.235923721991607067e+02,-7.335431419171204226e+00
2.155898582075875680e+01,2.227217663310460125e+02,-6.077194907182933648e+00
1.714606406582843334e+01,2.253633252377052258e+02,-9.797703147477015762e+00
1.600563431056172803e+01,2.265672396424535577e+02,-1.035295961347429383e+01
2.609435814415526522e+00,2.219048524430182852e+02,4.279980029214620174e+00
4.178164625331906024e+00,2.208476065643418167e+02,4.873882116461558667e+00
9.764783565621613093e-01,2.229731070201062835e+02,3.507538681184755092e+00
-5.891480805233300089e-01,2.237477471563300924e+02,2.627654004110233643e+00
-3.262487155529417038e+00,2.255460522301904120e+02,5.678812983879808485e-01
-2.063123761601559636e+00,2.246019928646761059e+02,1.571668963787701045e+00
-5.014097907977848934e+00,2.280083727607089941e+02,-8.973350211388797959e+00
-5.831475407831398172e+00,2.286113553676343315e+02,-7.185205196193094501e+00
-5.355617719683422706e+00,2.267759879232613685e+02,-2.034073873495671592e+00
-4.332502377346486355e+00,2.263241016612868179e+02,-4.738864727142058086e-01
-6.016612907159917256e+00,2.292259349017128329e+02,-3.816063349846633201e+00
-5.647972077680655900e+00,2.284242998517398178e+02,-2.397669973778551622e+00
-6.138248474116259956e+00,2.298136575522200644e+02,-5.422207898504012746e+00
-4.288733997155027566e+00,2.290464061759881531e+02,-9.994436566622749041e+00
-2.052321264664286105e+00,2.297513647672003572e+02,-1.192117142795222406e+01
-3.459365649460004022e+00,2.301370636458457568e+02,-1.085339865919296543e+01
7.391500052085025807e+00,2.213756515534254845e+02,5.045243541946756949e+00
1.254800645652732527e+01,2.215495810637208365e+02,3.366357167341030632e+00
1.059648983451654480e+01,2.222161370486915644e+02,4.038798010901523128e+00
8.766012678600485941e+00,2.226704541935145301e+02,4.735347956448123341e+00
5.812495609619977799e+00,2.219627835231818267e+02,5.232149973206560389e+00
1.193273929517888376e+01,4.275505327834292757e+01,-1.541882436604433693e+01
1.310432668061233841e+01,4.211753305939652137e+01,-1.398592724022032030e+01
1.393633311530583541e+01,4.214265638398984493e+01,-1.233230915269434291e+01
1.067949610957727913e+01,4.307503350847906631e+01,-1.662753637506572701e+01
1.455861459355800491e+01,4.105815722576789994e+01,-1.138966869274160132e+01
1.498775395462585891e+01,4.163727559728550887e+01,-9.741562516409306483e+00
1.541971824187455553e+01,4.170987617683925919e+01,-7.913419590461471032e+00
1.260456778051780802e+01,4.761196110638513801e+01,7.099258175955419858e+00
1.139835366224469837e+01,4.749213851671476050e+01,8.706347793268012225e+00
1.331329772828350677e+01,4.599858789972302020e+01,6.578260631982864481e+00
1.399628728494083774e+01,4.439009637483525239e+01,6.026161932655433873e+00
1.606030997143448857e+01,4.155145317688641171e+01,-2.003610910369526987e+00
1.599882341955288467e+01,4.176840960580813089e+01,-5.588722663175538230e-02
1.574100550881693295e+01,4.214063548164455142e+01,1.777633446719467436e+00
1.529557413856920611e+01,4.248430279298332835e+01,3.596710615467342720e+00
1.469622040338160218e+01,4.268788172811838422e+01,5.422992914354921368e+00
1.595904399041267752e+01,4.155824529690443114e+01,-4.014054366730674950e+00
1.573826964611823342e+01,4.168872169559011809e+01,-5.969374583364736253e+00
-4.131899058341286235e+00,4.416035175938236534e+01,8.351909439807336355e+00
-5.961027588749894690e+00,4.407632853494362735e+01,7.890785567588331162e+00
-7.681798235968892996e+00,4.379969944526771997e+01,7.079361787804323569e+00
-9.224869042005781949e+00,4.330122621186387732e+01,5.934384063857979896e+00
-2.315870542876311333e+00,4.320048797135757468e+01,8.682783153770948559e+00
9.800523646001567002e+00,4.722729765318263162e+01,1.022636198192236634e+01
7.901847908833291356e+00,4.679805050448663906e+01,1.105410370399944497e+01
6.312702200287233723e+00,4.571289603144526836e+01,1.110125748924431122e+01
4.669982370127538474e+00,4.502970431511073457e+01,1.033875504263241396e+01
3.090507748066684712e+00,4.452421677660572641e+01,9.620568454841638584e+00
1.489013881444222420e+00,4.365744801008281684e+01,9.077981992092098551e+00
-2.492432388436078838e-01,4.246765174451985558e+01,8.860366140797218293e+00
-1.262510389088825491e+01,4.195009562492623445e+01,-1.133993158696327441e+00
-1.228130739288630124e+01,4.194036768044054497e+01,5.842603600180424905e-01
-1.184204423191368960e+01,4.198198164719445913e+01,2.280417277652944108e+00
-1.126819921516389655e+01,4.200073253651885352e+01,3.913467716720468559e+00
-1.061256336981629289e+01,4.185035440568753984e+01,5.432153274258947562e+00
-1.327576100731693387e+01,4.026534383540081308e+01,-1.608088647096856505e+00
-1.358549290241604979e+01,4.007774200944169252e+01,-3.285127477723721157e+00
-1.384021699412316053e+01,3.967884516922657667e+01,-4.903011535269362398e+00
-1.388326330570367162e+01,3.942939997111125194e+01,-6.609431202582163323e+00
-1.366463959817846074e+01,3.952235631289880757e+01,-8.276160009639104587e+00
-1.348510329251588402e+01,3.926107866112346301e+01,-9.859385287292903755e+00
-1.296563627433772581e+01,4.069878887968940262e+01,-1.074437001273029679e+01
-1.235312167769167147e+01,4.180983892980736982e+01,-1.214703261200475026e+01
-1.160695503515565541e+01,4.225992241776816627e+01,-1.346013866751702004e+01
-1.052757640943199036e+01,4.246124438608308083e+01,-1.453599087725164907e+01
-9.188240480572497759e+00,4.260149350789413347e+01,-1.539264879359904015e+01
-8.162831144463664756e+00,4.178205318798950429e+01,-1.634577042868020413e+01
-6.481478835658149862e+00,4.226211883856734630e+01,-1.682588850162611394e+01
-1.395787052842080378e+00,4.289989222325169749e+01,-1.797228366451972903e+01
-3.473733261338333378e+00,4.201240209474423182e+01,-1.792513742324330650e+01
-5.463738247855125962e+00,4.132454992127389914e+01,-1.769615053791048354e+01
5.594829693340952481e-01,4.299074250614876291e+01,-1.821062599043727204e+01
2.349394608078958058e+00,4.293618897070945195e+01,-1.838861687697025360e+01
4.088653284695746848e+00,4.276317008709571610e+01,-1.848602188095442145e+01
6.527663705057570098e+00,4.383480022875698978e+01,-1.799964686135529846e+01
5.780863299957481161e+00,4.261919091158404171e+01,-1.852380885484722839e+01
7.960720871741006732e+00,4.295641620148791162e+01,-1.811746922337121646e+01
9.582417324146121018e+00,4.247081453927484063e+01,-1.772305639840439184e+01
1.579700856469062842e+01,2.221727067913579106e+02,2.352312567043494340e+00
1.401747882909949183e+01,2.227154625273481656e+02,2.924558108981095472e+00
1.744829491491107376e+01,2.216334366508828566e+02,1.689181564601465624e+00
1.885542848975050134e+01,2.211950173827791559e+02,7.791577728581788875e-01
2.091929758957343921e+01,2.217095940576850808e+02,-1.281457601254114564e+00
1.976777770185521987e+01,2.222710425144561839e+02,-1.573484284853465809e-02
2.158134710529402156e+01,2.227487969472745704e+02,-2.702031017335705165e+00
2.187981005466356521e+01,2.237515518690686633e+02,-4.298169366204321662e+00
1.343558106664032437e+01,2.279720910820364566e+02,-1.148430373905448576e+01
1.505659319795400464e+01,2.281121324160235986e+02,-1.077147232991440617e+01
1.102855586823278600e+01,2.292323202388294021e+02,-1.241901683067904827e+01
1.250071918844561480e+01,2.294101094568977999e+02,-1.185579444911121172e+01
8.858796624403884934e+00,2.299882720730815322e+02,-1.311781362714513222e+01
7.372813490214110033e+00,2.303533970482982909e+02,-1.347883600823686834e+01
5.774692269379837484e+00,2.307799415301320494e+02,-1.371765822420245229e+01
9.997486742837132567e+00,2.308169032322753367e+02,-1.274710410400827953e+01
3.940448323678264586e+00,2.310844727817123214e+02,-1.379059495532779778e+01
2.144758313692179286e+00,2.312080974601633727e+02,-1.364221758220541147e+01
3.868965510751394277e-01,2.312572852535239463e+02,-1.322916415717123684e+01
-1.142897592328708356e+00,2.312000358807936777e+02,-1.252830515548739143e+01
1.964413958038910124e+01,2.247945119182369922e+02,-8.273682088791337819e+00
1.854731397253576120e+01,2.259613174400706157e+02,-8.993617148441870768e+00
2.167027039448377934e+01,2.245511808141265533e+02,-5.872649870598957378e+00
2.092486158584987521e+01,2.254806312760478022e+02,-7.181131306202335196e+00
1.748201101017490799e+01,2.271582965287166758e+02,-9.582835846662735690e+00
1.652912714918162607e+01,2.283941396291431261e+02,-1.004948030787774726e+01
2.483414528986580549e+00,2.235223049112173044e+02,4.247700082739790162e+00
4.184211159663190571e+00,2.227779932517392467e+02,4.929100834535105946e+00
7.323337928414730413e-01,2.247076394152983596e+02,3.439543062896319725e+00
-8.600472335068864993e-01,2.254083946387270885e+02,2.556160760287234268e+00
-3.422298543948734562e+00,2.273932488425709835e+02,5.458139275659803502e-01
-2.181959727681146433e+00,2.264060345539671175e+02,1.618226668711812977e+00
-5.359491305888447243e+00,2.296992208985053310e+02,-8.580067002278612520e+00
-6.012192903163061430e+00,2.304456448776511763e+02,-6.963674711924070060e+00
-4.939682083332535001e+00,2.276717376067801410e+02,-1.105364369662524382e+00
-4.269840431219712684e+00,2.286245929982329699e+02,-1.979906655798515658e-01
-5.855368264217851504e+00,2.300918180050489923e+02,-2.512442728459671315e+00
-6.194518237012260897e+00,2.309395375670314081e+02,-3.856603625587016637e+00
-5.183066730805798272e+00,2.293277319545640864e+02,-1.202797641401183171e+00
-6.307010061577365434e+00,2.316196290021755146e+02,-5.328759983851519166e+00
-4.718066182976237144e+00,2.308793289687851598e+02,-9.661588838682622082e+00
-2.636944276651803420e+00,2.314860675911708086e+02,-1.155821254606584603e+01
-3.934814968888780129e+00,2.319675094135241125e+02,-1.046493932899512203e+01
7.227204467399785948e+00,2.233159628006804951e+02,5.217739385822479647e+00
1.230219216560176321e+01,2.235309604029453681e+02,3.516669535189185680e+00
1.020495327586732870e+01,2.239640176167867764e+02,4.252543007506972117e+00
8.526779568078449500e+00,2.246708274004810164e+02,4.890427988124411485e+00
5.682107920410911284e+00,2.239683197778862791e+02,5.250816943559748040e+00
1.238377916255775091e+01,4.133338398976241024e+01,-1.551655125818536263e+01
1.123808331570301533e+01,4.146461843271754333e+01,-1.687553525825512679e+01
1.392594578194791666e+01,4.060259319349671614e+01,-1.317119659255486042e+01
1.324445388322445183e+01,4.022362343616168801e+01,-1.472070418551798454e+01
1.468882090595208467e+01,3.933371291987009499e+01,-1.215395416675799822e+01
1.513475862814253503e+01,3.977804768685189174e+01,-1.043771713799081979e+01
1.550115619694327052e+01,4.011907327147139313e+01,-8.726337084114092590e+00
1.585840430183784378e+01,4.017581550235098575e+01,-6.848602436584913633e+00
1.229039771897426192e+01,4.596576377470057650e+01,8.215595621155394213e+00
1.099386217037608304e+01,4.580772734931832701e+01,9.799402088215448003e+00
1.311511312749484048e+01,4.437134307793155585e+01,7.737724778646605017e+00
1.390390244837440825e+01,4.277972881683871265e+01,7.252358854777181563e+00
1.640045959387653340e+01,3.990297347449626386e+01,-8.689225454581936958e-01
1.635220471517551033e+01,3.988148818854426736e+01,-2.883971319144416512e+00
1.626428488911946957e+01,4.020229434100065191e+01,1.124085220646922068e+00
1.593810545813760982e+01,4.056203000639544598e+01,2.962786132247327231e+00
1.539927706903666405e+01,4.097422067461315009e+01,4.766060252766433081e+00
1.467776808282842183e+01,4.111724824334282857e+01,6.755186969117175977e+00
1.615875237460578973e+01,4.002407191695135680e+01,-4.889294319005398570e+00
-4.447711363536136275e+00,4.234254467027352575e+01,8.876663637231345660e+00
-6.596937701796186104e+00,4.235123021623235218e+01,8.469908371996691443e+00
-8.441961532745894559e+00,4.209936596239566597e+01,7.633819491358867282e+00
-9.904706627438651267e+00,4.142769361784081639e+01,6.853718476198697118e+00
-2.034152752711488432e+00,4.135297059057012348e+01,9.025314472773359853e+00
9.347528679135479024e+00,4.541192144006305398e+01,1.107408891262818429e+01
7.746278670820078815e+00,4.457972262731402679e+01,1.159436647727640235e+01
6.159276213188626059e+00,4.382020741639485095e+01,1.124152435831610575e+01
4.644732145990595029e+00,4.314721111144285715e+01,1.052641162837370103e+01
3.120865954378327700e+00,4.253155393704668086e+01,9.802622546983968732e+00
1.545012104124179331e+00,4.171159757442165983e+01,9.285453859698932888e+00
-1.704379142876568665e-01,4.034189736463986264e+01,9.185166636506885141e+00
-1.298159905406426873e+01,4.031249305290356233e+01,8.268614596711643117e-02
-1.265544058740918842e+01,4.026465312415678000e+01,1.773766169382454905e+00
-1.221402831580861914e+01,4.026639720185164606e+01,3.548094911517132743e+00
-1.170257378161130646e+01,4.020080857545809749e+01,5.339366646050478948e+00
-1.102947479886916859e+01,3.977239639355286727e+01,7.176722228081743538e+00
-1.365471891841620433e+01,3.864339151940993133e+01,-4.798760285482508436e-01
-1.395736034278046489e+01,3.852013935074455731e+01,-2.228522364781150955e+00
-1.422439840046566317e+01,3.812538561895399880e+01,-3.810419556492623094e+00
-1.435469873025389020e+01,3.781951494506199651e+01,-5.457566462493091741e+00
-1.425211721765582951e+01,3.768420124599219889e+01,-7.120395287299734477e+00
-1.402295806657123478e+01,3.766482616371075665e+01,-8.729665263798397135e+00
-1.379076627007710698e+01,3.737044666602099596e+01,-1.044804279774169586e+01
-1.332337388392811484e+01,3.869228227439094780e+01,-1.151105674591040895e+01
-1.286870290292715246e+01,4.010750483243111830e+01,-1.222389100035622178e+01
-1.233079783805720631e+01,4.057424651643401603e+01,-1.360872812032301304e+01
-1.148001255116859198e+01,4.087124859621553696e+01,-1.475056170873229178e+01
-1.020564620957815194e+01,4.094231914734973543e+01,-1.571216137470339191e+01
-9.048099475988678364e+00,4.036171763062566242e+01,-1.668155918939589455e+01
-7.373468811603299145e+00,4.041765365486310202e+01,-1.743505340075764565e+01
-2.132133884818885772e+00,4.116630839968934197e+01,-1.862204877744755294e+01
-2.465226442008159324e-01,4.144404267496071270e+01,-1.877345844966114896e+01
-4.183888104148293152e+00,4.045741329439863421e+01,-1.854945356776328680e+01
-6.068565661730940697e+00,3.970204273636318248e+01,-1.837949953580332618e+01
1.611300495974525404e+00,4.140556820865640475e+01,-1.896668627201903234e+01
3.407344963391453874e+00,4.123991215797116183e+01,-1.906885587087529643e+01
5.140375742667952608e+00,4.115409216740044940e+01,-1.908933222269693175e+01
6.926813701228621056e+00,4.139231676357928791e+01,-1.890498639629271338e+01
8.563931110487317255e+00,4.141768820087287395e+01,-1.864246601678903303e+01
1.024243989948038802e+01,4.089232688759761913e+01,-1.807262089122016135e+01
1.504041632632217862e+01,2.240608505455710144e+02,2.617031565834910367e+00
1.691313107421397532e+01,2.234029833801921541e+02,1.893021694146330702e+00
1.345741672172861314e+01,2.252003142621268807e+02,3.153231410845027227e+00
1.841324260024622106e+01,2.230721829013655224e+02,1.035841530827598334e+00
2.071330597812051622e+01,2.233565874812360335e+02,-1.100582180749398953e+00
1.950335099226306568e+01,2.240367137458838727e+02,1.724507686523479855e-01
2.144719730360834120e+01,2.245266279836154695e+02,-2.489608885795636439e+00
2.186369008186931495e+01,2.255545732627948610e+02,-3.984920402557627028e+00
1.408310642861439277e+01,2.295806107918991188e+02,-1.117978573122226038e+01
1.556246311682205530e+01,2.298435505621162349e+02,-1.049149600038712293e+01
1.156616722306186773e+01,2.308974372178025192e+02,-1.218445558169442577e+01
1.311400463939692074e+01,2.310682806732269512e+02,-1.156010903331356232e+01
8.368948637909756627e+00,2.316540928408341529e+02,-1.322330544998330737e+01
6.729584484843453396e+00,2.320764475697693854e+02,-1.358271254709546128e+01
4.977092050355590658e+00,2.324295400668231082e+02,-1.377965322169843887e+01
1.072517995859976025e+01,2.324210504933712116e+02,-1.247382113718838070e+01
9.268043497319984780e+00,2.327916410013154120e+02,-1.297397845684059092e+01
3.154350583266364083e+00,2.327029519790472989e+02,-1.377221745068505498e+01
1.407286814629252092e+00,2.327590043881640725e+02,-1.352253726974075221e+01
-2.589732668950830430e-01,2.327512657762973163e+02,-1.302343919116214366e+01
-1.771907214373015904e+00,2.328647487456553336e+02,-1.219204110670718322e+01
1.988135659538899347e+01,2.265862365484493068e+02,-8.116536158481052254e+00
1.885961518205353826e+01,2.277396238970937077e+02,-8.772544750858582319e+00
2.178189321451408489e+01,2.263857988267573944e+02,-5.603887217230099083e+00
2.109989700126922685e+01,2.273004412810421968e+02,-6.968502016690647949e+00
1.799738011961929729e+01,2.289883066468385380e+02,-9.238802325461385578e+00
1.701698197091360854e+01,2.301848957067348351e+02,-9.745324264668973058e+00
2.233674354742658963e+00,2.251797098988464825e+02,4.167122113638050962e+00
3.941323636639625150e+00,2.246182453171844031e+02,4.850731518785231344e+00
3.302664403156292394e-01,2.263358522734454255e+02,3.330775619447791769e+00
1.819926026797649143e+00,2.267541138528218880e+02,4.031938664592047417e+00
-8.637301344374463952e-01,2.271977921539678960e+02,2.681352726784879792e+00
-3.332093845036354196e+00,2.294407514970156399e+02,7.609305443545864023e-01
-2.234134387999993976e+00,2.282029805386338523e+02,1.667025511424469641e+00
-5.618639322108087697e+00,2.314746717822868050e+02,-8.340017292061107312e+00
-6.175049265091082873e+00,2.323042396465523609e+02,-6.843612509355628148e+00
-4.384821486247982847e+00,2.306711016203040856e+02,-1.810663574107351792e-01
-5.999270190254073043e+00,2.319355499141712187e+02,-2.543980259834135893e+00
-5.420138101450874046e+00,2.310733959441774346e+02,-1.390082231564374382e+00
-6.299679342402363602e+00,2.327890782715015234e+02,-3.716569196167178291e+00
-6.397215846545336149e+00,2.334015717169463926e+02,-5.462950858388040842e+00
-5.040255313127033787e+00,2.326783717611953080e+02,-9.326661599592529939e+00
-3.217974507039798482e+00,2.332755547273938816e+02,-1.113161637719980490e+01
-4.471505326308630401e+00,2.338967733387514443e+02,-9.965929654752514466e+00
7.043059509722835898e+00,2.254057780931790944e+02,5.331036902246047759e+00
1.158228464168057137e+01,2.251297885040335984e+02,3.826623345187183389e+00
1.001553112557151515e+01,2.259534791940559444e+02,4.454668437934984127e+00
8.406712806008403760e+00,2.266454704475164021e+02,5.070027627011516103e+00
5.361627217211184515e+00,2.260156527432041003e+02,5.242149272323310072e+00
1.236069248180231739e+01,3.990697982505867003e+01,-1.631592612962806399e+01
1.142727397792597799e+01,3.969668045540907997e+01,-1.757732167955574454e+01
1.410165473538413750e+01,3.893358892470314458e+01,-1.386017050972411724e+01
1.336750675592178794e+01,3.865754016132888182e+01,-1.547905617910117471e+01
1.535173117221022920e+01,3.799396013213521428e+01,-1.108080741496430122e+01
1.489801007990801196e+01,3.766959558945222852e+01,-1.281067495046971061e+01
1.565777964005846457e+01,3.837968429617848187e+01,-9.431551572982105114e+00
1.598608073549495145e+01,3.863626730312176960e+01,-7.658266024930156846e+00
1.632881001079744721e+01,3.853805256277411218e+01,-5.715268553688502173e+00
1.200959127890957845e+01,4.427015238092565141e+01,9.373247606674972587e+00
1.067903599495306821e+01,4.398542439704931439e+01,1.085448830249923446e+01
