2.304280569010359159e+01,3.586273398894063575e+02,-4.297193636227571112e+00
1.411436615492174163e+01,3.576342489431458489e+02,-2.187218388671504599e+01
1.261160062569864948e+01,3.577141932423594994e+02,-2.345492499430984878e+01
1.115547602902210045e+01,3.572326533828738206e+02,-2.504294556239489822e+01
9.854755006061875378e+00,3.567398582487248859e+02,-2.621210281191184777e+01
8.268350678589250435e+00,3.566689997559353174e+02,-2.736971453132284182e+01
6.570123082735756626e+00,3.566475684525771044e+02,-2.839231702180111938e+01
1.565921359674537250e+01,3.587870325048278346e+02,-1.943274617786657998e+01
1.410814954559694279e+01,3.590860230862068647e+02,-2.110491783419379885e+01
7.253264156493415271e-01,3.567207665652366018e+02,-3.071531784115425268e+01
2.589065942294322298e+00,3.568905398224306396e+02,-3.008631305334282047e+01
-1.655095950308417940e+00,3.569483426560625503e+02,-3.151006549796016287e+01
-3.727867084439065337e+00,3.570184907522119602e+02,-3.216824471577092481e+01
-5.767883597804743800e+00,3.572696344327984548e+02,-3.271735341476886560e+01
4.706983796820757959e+00,3.566915197556020871e+02,-2.923894726197422500e+01
-7.759519019842976206e+00,3.575135840313868130e+02,-3.319054786773467924e+01
2.651101383962645386e+01,3.444825571827167892e+02,2.229666309675058500e+01
2.784402412819444805e+01,3.468117067556527786e+02,1.942671939367867040e+01
2.703586108620787698e+01,3.465356483245847130e+02,2.150897125560811673e+01
2.863154380631417695e+01,3.487060090562727623e+02,1.609654048938593363e+01
2.871656858298263870e+01,3.499499277302488167e+02,1.428690657088549898e+01
2.818400214173044205e+01,3.486713360058595299e+02,1.823409168850242779e+01
2.870380988669797517e+01,3.502383772899605674e+02,1.210625821710367589e+01
2.839838586237257445e+01,3.514299531369420038e+02,8.426994113189856250e+00
2.845897054925785952e+01,3.519029472603861564e+02,1.056953231371916502e+01
2.830268911518860619e+01,3.519072179077988380e+02,6.177056586167060104e+00
-2.225950184317212788e+01,3.541396074391405477e+02,1.006170378439141722e+01
-2.332552506373770740e+01,3.537063593293144663e+02,8.484397297629149293e+00
-2.447433846212797803e+01,3.535602150068652350e+02,7.022621846082084396e+00
-2.120549979294297671e+01,3.545657928849333871e+02,1.327300704145860344e+01
-2.133946486199274517e+01,3.551293495487913674e+02,1.146135078748722691e+01
-2.088653937633528557e+01,3.544098739824855215e+02,1.537269469987147374e+01
-2.066205523322396331e+01,3.541797218226612927e+02,1.749953031731464392e+01
-1.140907434776015705e+01,3.457558664213256066e+02,3.285659736959675570e+01
-9.585209825790784066e+00,3.451011979946047745e+02,3.407265585924267981e+01
-7.343108260965014011e+00,3.448531834694990721e+02,3.530823039181555600e+01
-5.198563020893788078e+00,3.450359246101672852e+02,3.641473680921782119e+01
-1.496520049461365787e+01,3.494069597737224058e+02,2.948309302820758759e+01
-1.361036290395493786e+01,3.489667948632459797e+02,3.127336362823872307e+01
-1.188037596838683285e+01,3.474645081712629349e+02,3.320633053853004668e+01
-1.248205570107627338e+01,3.491106834604624964e+02,3.291105396191681365e+01
-3.009189067882367397e-01,3.438624336650276518e+02,3.653431398046610212e+01
-1.869053277915014633e+00,3.445437922090678740e+02,3.693254413987266105e+01
-3.484116398161415162e+00,3.455248012018762438e+02,3.733738717561450926e+01
1.467055885942975202e+00,3.443641701175541812e+02,3.688204735183439453e+01
3.102363732412392050e+00,3.449945946220379369e+02,3.712139427676311954e+01
4.641917398230635428e+00,3.458451239582824428e+02,3.708530007875867085e+01
6.259413235918668938e+00,3.468311224969885984e+02,3.677925989861748945e+01
9.444205331525450831e+00,3.468704871831718606e+02,3.527563406342107299e+01
1.111214084224088694e+01,3.479070405927304250e+02,3.465216178924201529e+01
7.896097199581996406e+00,3.478908040177809653e+02,3.630134892216951670e+01
1.272959412081109321e+01,3.489481260392419131e+02,3.385940510844100260e+01
1.444898249802935197e+01,3.498957963668634648e+02,3.294295027115953900e+01
1.585505978760057388e+01,3.487126904514980197e+02,3.188515192195102443e+01
-1.829226440892713157e+01,3.525337087900721258e+02,2.527441758536900807e+01
-1.707785000381922202e+01,3.520522987092198832e+02,2.714763246457255974e+01
-1.556150680222223492e+01,3.518088869237706717e+02,2.919921475387826604e+01
-1.930060917387650221e+01,3.524089635424942912e+02,2.312734094186606626e+01
-2.031349117120402781e+01,3.542143783874394103e+02,1.974889707736473810e+01
-1.963044766378820327e+01,3.544741562775315629e+02,2.192694341603084496e+01
1.755569425138812889e+01,3.492172466069918073e+02,3.086817270660854007e+01
1.924990747618938158e+01,3.494563265928584315e+02,2.983612668483264230e+01
2.211455111779749316e+01,3.478788094965779010e+02,2.761920499806542040e+01
2.104740174720198809e+01,3.494681868180787774e+02,2.865935883461437683e+01
2.377156036452598897e+01,3.475356579485842303e+02,2.626881943716082191e+01
2.589392613528045928e+01,3.459755936274671058e+02,2.352869865769579860e+01
2.518017470136902247e+01,3.475669185793642555e+02,2.467693723804276829e+01
-2.321445180273737563e+01,3.542545363700738790e+02,-3.089798081754644343e+01
-2.482444654283643715e+01,3.537342185854574268e+02,-3.001653676242855084e+01
-2.636426899452498773e+01,3.549867100447597181e+02,-2.926028388457724816e+01
-2.770259720029444850e+01,3.560249095087049227e+02,-2.838076998778938886e+01
-2.916105343874122369e+01,3.552157604148717951e+02,-2.729269414759279044e+01
-3.034896363106437889e+01,3.543863904130570859e+02,-2.612436114219199013e+01
-3.176618649702781028e+01,3.521574316100018223e+02,-2.380228983460193959e+01
-3.140559013249416154e+01,3.536962098797419003e+02,-2.485319371941002231e+01
-3.213244973787513459e+01,3.506138875625068749e+02,-2.244498213407169374e+01
-3.358165803500902058e+01,3.509507589087810402e+02,-2.094866225338962451e+01
-3.478208492034693222e+01,3.513793632749451490e+02,-1.927390227444575999e+01
-3.581653794030860638e+01,3.520435816120980235e+02,-1.755103940178158695e+01
-3.690937589169037381e+01,3.526849842267055806e+02,-1.425960478527646202e+01
-3.648279309604167508e+01,3.528807095227533637e+02,-1.602644368612070025e+01
-3.694028893150978377e+01,3.537443436461578585e+02,-1.304377869144397550e+01
-3.665089621771414130e+01,3.533769612030572489e+02,-7.056644417044910966e+00
-3.680678524980437771e+01,3.541014342759096962e+02,-9.398835311818650950e+00
-3.661720140151511771e+01,3.548466757123090929e+02,-1.176020467192521934e+01
-3.612947962211543995e+01,3.547464428387878570e+02,-5.294652393208775010e+00
-3.505966480027105803e+01,3.560233959585544312e+02,-3.180077748973971552e+00
-3.318141128573816445e+01,3.567809534788547126e+02,-1.014365488829602313e+00
-3.072413098450410729e+01,3.569013459300716704e+02,6.805163743994800951e-01
-2.879679700590764568e+01,3.557897642592129159e+02,2.366945175827942727e+00
-2.654802984802921983e+01,3.560003992258191374e+02,2.779963132881680288e+00
-2.595904561529363619e+01,3.547712411107411299e+02,4.342340463662315742e+00
-2.435951843081841517e+01,3.546364029560417066e+02,5.428018861225278435e+00
2.720544319338679884e+01,3.541320513551470981e+02,2.272014769338391194e+00
2.775479714122958796e+01,3.539253580327478517e+02,5.414078078249675130e+00
2.704388398774750613e+01,3.555080101492866334e+02,4.175269238676943218e+00
-9.700138605588215057e+00,3.575063985622427936e+02,-3.350776676416020194e+01
-1.165605767786514946e+01,3.574470000989466030e+02,-3.369880553772855336e+01
-1.284013164304933952e+01,3.558786261727598799e+02,-3.366191992126168486e+01
-1.470390632416399512e+01,3.548416243101589203e+02,-3.350745692577876156e+01
-1.631413427114368986e+01,3.562050529705180111e+02,-3.348789810405948231e+01
-1.794367176789716822e+01,3.553799238791084463e+02,-3.308837630308497069e+01
-1.979124176027514181e+01,3.548614331181010471e+02,-3.243247770002013652e+01
-2.152534405832115993e+01,3.547699167874189357e+02,-3.173773711708138734e+01
2.210424842717874583e+01,3.594184295213488554e+02,-6.132854239481393854e+00
2.121565181860309224e+01,3.599634760562596512e+02,-8.013089164856275204e+00
2.003816003197800910e+01,3.604436994350520536e+02,-1.003566082504819512e+01
1.817725114377953588e+01,3.608383166382525360e+02,-1.313265276736186848e+01
1.812746224089370628e+01,3.617176369115140915e+02,-1.157568785522466648e+01
1.757768906487944349e+01,3.603309270405084135e+02,-1.492308985387376552e+01
1.622287730775815717e+01,3.609090497258104051e+02,-1.644267620918289197e+01
1.475623909169686065e+01,3.614297388518075422e+02,-1.802490817342646778e+01
1.443476499792625134e+01,3.603610298963169498e+02,-1.959399376397734471e+01
2.633288909869102312e+01,3.562765749490621943e+02,2.274654002369034700e+00
2.560459208338212989e+01,3.569863723693720203e+02,7.514758788658012501e-01
2.444008613468097835e+01,3.582263885170874005e+02,-2.924454254852300039e-01
2.311772580541112632e+01,3.594183814615027472e+02,-1.365028451937300602e+00
2.210345706630687701e+01,3.601443391506786043e+02,-2.841665583055235089e+00
2.126011999638947003e+01,3.608469188600079178e+02,-4.502086481527075357e+00
1.235629264323200793e+01,3.594464931409158339e+02,-2.288693046190291369e+01
1.112653029276338579e+01,3.588903133400277170e+02,-2.454455101115973292e+01
9.731321328412370519e+00,3.583841141800469359e+02,-2.601793054024775032e+01
8.319808563381398514e+00,3.581492280198233971e+02,-2.713972445259371824e+01
6.826167477214569068e+00,3.580440959768862399e+02,-2.817314753440785324e+01
5.199599111469142443e+00,3.580626717334510545e+02,-2.904349847228260728e+01
1.274509472720366432e+01,3.607582778595871673e+02,-2.134170907788923088e+01
1.213177396353369630e+00,3.586788193900478063e+02,-3.068776097254518476e+01
-5.195254964797335617e-01,3.582804583007697943e+02,-3.126028461132826664e+01
3.334297672540326829e+00,3.582991090186122847e+02,-2.984642021888088692e+01
-2.603205909826709075e+00,3.587484987276725974e+02,-3.195789739785477934e+01
-4.557512174128291349e+00,3.588895928880624524e+02,-3.252022917983756400e+01
-6.630716037038872912e+00,3.591190186714071046e+02,-3.297298998180519902e+01
-8.702103753309984313e+00,3.594895134337977538e+02,-3.329521482731524173e+01
2.746925193924299791e+01,3.486084259534969192e+02,2.038980570602900499e+01
2.638873012082933300e+01,3.477836494701998049e+02,2.277800626439808696e+01
2.840506942096191523e+01,3.505016163882118576e+02,1.659995008638822256e+01
2.845379146340877696e+01,3.521017184621374554e+02,1.503860459925347293e+01
2.855866154755994302e+01,3.520137780111966777e+02,1.292364857541518397e+01
2.792938494016993189e+01,3.505148167285323098e+02,1.871815846436426156e+01
2.815690528737032139e+01,3.537427450526124062e+02,9.368029413989914289e+00
2.797806906078756128e+01,3.537483556391173920e+02,7.441987958527915836e+00
2.833674619800667926e+01,3.537802274229438808e+02,1.153572519876025737e+01
-2.112955629530782886e+01,3.562274741092022055e+02,9.723517314281959756e+00
-2.206691674875534659e+01,3.553222840882311857e+02,8.219254731056331309e+00
-2.312833826725189112e+01,3.548201851400340843e+02,6.764051261602745058e+00
-2.041212148432481399e+01,3.564849479642603569e+02,1.448470841122133912e+01
-2.051761135250679047e+01,3.569610272091644561e+02,1.247564658976916441e+01
-2.034687960380690441e+01,3.578522910306961080e+02,1.066655278384782335e+01
-2.016379484356725271e+01,3.563930807363068993e+02,1.659361870564796959e+01
-2.001310436655746372e+01,3.560581261617097084e+02,1.849865758900458701e+01
-1.049277987944556401e+01,3.470078512136480526e+02,3.459151737971481566e+01
-8.789824368111023745e+00,3.462297486863615177e+02,3.549659413394761742e+01
-6.820583508149299590e+00,3.462644404081947869e+02,3.666782589791598213e+01
-5.124220456790478551e+00,3.468120250100614044e+02,3.767692315781166457e+01
-1.430126269751373158e+01,3.510524565460597159e+02,3.079266881991088312e+01
-1.293357191601605294e+01,3.509532766839452051e+02,3.257312827727031390e+01
-1.116123293343409451e+01,3.490558094919310292e+02,3.451853014668510156e+01
-1.159003371002966531e+01,3.509738922172964521e+02,3.422668246115792812e+01
-1.367706551214276089e-02,3.453369475451025323e+02,3.762374945602745413e+01
-1.617345928473781669e+00,3.461702153193411391e+02,3.802277718343281521e+01
-3.376554339486380840e+00,3.471776826556415472e+02,3.827048378057190803e+01
1.654399316540186682e+00,3.460624104281399696e+02,3.790783642003211185e+01
3.099112480290907357e+00,3.469384851409734551e+02,3.793416209410556661e+01
4.667678160363163187e+00,3.479368172833228527e+02,3.767809927739688902e+01
6.307436870073393820e+00,3.489686200475030660e+02,3.723695514834912501e+01
9.551860606788245889e+00,3.489760359442771005e+02,3.566277301499593477e+01
1.124368848606457050e+01,3.500712714287795961e+02,3.484461785703255998e+01
7.994307778251011243e+00,3.500112792871566398e+02,3.658958775459917945e+01
1.302857790428206286e+01,3.510414583148689758e+02,3.390069650807765811e+01
1.629639259026399145e+01,3.505918838937824944e+02,3.188505304303776455e+01
1.495718008394845810e+01,3.518204166847639840e+02,3.281722849255012164e+01
-1.741623580205175159e+01,3.547048570239830951e+02,2.637641986928677085e+01
-1.879055461154351292e+01,3.545956753599860463e+02,2.411663863085734150e+01
-1.624169021646756050e+01,3.537882767592499818e+02,2.821569056151300359e+01
-1.471234979002004017e+01,3.539784711336357645e+02,3.013191206537129929e+01
-1.929608977340164699e+01,3.563761231763717205e+02,2.049776817747044788e+01
-1.843365158207803134e+01,3.565445070427014684e+02,2.263152452660701996e+01
1.812278197950358916e+01,3.510339962867154213e+02,3.079923816627183442e+01
1.990903877811280509e+01,3.510416176106063517e+02,2.962355030571513481e+01
2.292028105491007040e+01,3.493453672578086753e+02,2.722504540951101859e+01
2.187818512808386373e+01,3.509273321807774551e+02,2.814507736191272613e+01
2.440141847897830374e+01,3.493462293951675406e+02,2.568191809291533900e+01
2.561441479101321406e+01,3.494604237399871636e+02,2.393550843737713762e+01
-2.292675385757102191e+01,3.563124862269321511e+02,-3.111121988429658458e+01
-2.466952272193273643e+01,3.557955817596657653e+02,-3.024823263070864243e+01
-2.603515222493678394e+01,3.568222504582770398e+02,-2.933359879150430416e+01
-2.892573658935459946e+01,3.569208691919674834e+02,-2.722183898614165187e+01
-2.720624755566370823e+01,3.576502744227426547e+02,-2.825000115379549825e+01
-3.046036382936125975e+01,3.561842701801131170e+02,-2.611894804960245864e+01
-3.168274624545762208e+01,3.554116652854919494e+02,-2.490475189930435462e+01
-3.321151196852000709e+01,3.525600185969697122e+02,-2.233816282418702670e+01
-3.268968275749118391e+01,3.541621000171240894e+02,-2.356234465206078710e+01
-3.444477590764374497e+01,3.529664449886152511e+02,-2.082434477482045310e+01
-3.530500905697205383e+01,3.533550364181497230e+02,-1.928824125880589335e+01
-3.587337903435787467e+01,3.540344907494507538e+02,-1.791472352219565423e+01
-3.639589070525435943e+01,3.544311717485035160e+02,-1.520732446584722553e+01
-3.567944881531492740e+01,3.550311260594408509e+02,-1.705703179683111514e+01
-3.601511377199868491e+01,3.554669983900448642e+02,-1.399231230259084313e+01
-3.624669156211876242e+01,3.553424366185429903e+02,-7.757164088426915072e+00
-3.604813622247510807e+01,3.559123630342329534e+02,-1.023545718226858625e+01
-3.535384476362024486e+01,3.563945270260983307e+02,-1.254738648120034483e+01
-3.541316121925441252e+01,3.565564495406037508e+02,-5.784299821406182929e+00
-3.394808960306806256e+01,3.576100714867251895e+02,-3.495191183351682440e+00
-3.171183137099367855e+01,3.581879472536070352e+02,-1.480709408710196406e+00
-2.907568888552974329e+01,3.584679322436349480e+02,-5.519116787391449286e-01
-2.783490941841175115e+01,3.572904022846439034e+02,1.111827967772533121e+00
-2.511656018844990967e+01,3.570914303787191102e+02,1.591468117652663494e+00
-2.439933883043591933e+01,3.558336403214369170e+02,3.535886488432101515e+00
-2.299417637845377271e+01,3.558441977824326727e+02,4.793350612321701121e+00
2.725423923119462444e+01,3.559173236164081118e+02,6.369502337905408318e+00
2.576524644968644395e+01,3.577962327302631138e+02,3.693160867573190398e+00
2.618974083663814767e+01,3.577616273121290078e+02,5.505406607984156153e+00
-1.079202600602706497e+01,3.592831204221000121e+02,-3.352930230782354926e+01
-1.315388123260429154e+01,3.586750432730786429e+02,-3.363084122861519631e+01
-1.431248319741234809e+01,3.569240035252499297e+02,-3.370093987065260421e+01
-1.764599009625217718e+01,3.577953620556943974e+02,-3.306300386662440616e+01
-1.554010889048365840e+01,3.582997321060162221e+02,-3.344356731852872144e+01
-1.933109845813865846e+01,3.566658292891863766e+02,-3.265844211083144444e+01
-2.114849847539326078e+01,3.568523193866254246e+02,-3.190581069567865669e+01
2.047709517877496666e+01,3.615022051075025047e+02,-6.274500588515770971e+00
1.954175408084473986e+01,3.619425553751488565e+02,-8.050692990045771325e+00
1.838105858302422391e+01,3.622477124875878189e+02,-9.781226060472192785e+00
1.624730277668854228e+01,3.622341677847122128e+02,-1.450726324452141647e+01
1.598724370256639915e+01,3.631833551021331914e+02,-1.276047605047297395e+01
1.644169080499686686e+01,3.633157531498933963e+02,-1.082755431855938966e+01
1.463427685382036891e+01,3.628371153396928435e+02,-1.631103517134751968e+01
1.301286448569400100e+01,3.633265426521331278e+02,-1.801455299530993415e+01
1.292926773108427696e+01,3.621215029125795581e+02,-1.968362548685338709e+01
2.461562360701843133e+01,3.588217696267308270e+02,2.171675022239107022e+00
2.306967492132172737e+01,3.599823161850337101e+02,7.645886396028556131e-01
2.152503348895557167e+01,3.609210708951471815e+02,-8.684536843358725555e-01
2.022807214288154753e+01,3.617505413630979092e+02,-2.700393163699724486e+00
1.943842408599665106e+01,3.624662185752679875e+02,-4.751999989494459342e+00
1.035751564868134622e+01,3.605690273685985971e+02,-2.446543320098902541e+01
1.112819433674427216e+01,3.612514030177194968e+02,-2.299484850869837871e+01
9.606830521733085604e+00,3.597347461154860184e+02,-2.569256141149763906e+01
8.204246443679739542e+00,3.597644963077262332e+02,-2.686887239591954568e+01
6.910180855283233115e+00,3.596945886204413796e+02,-2.782997264656520287e+01
5.581641939366484451e+00,3.596839284039596691e+02,-2.870522871797233222e+01
4.042776297238994232e+00,3.597429211916473832e+02,-2.951101617467207561e+01
1.123129036610105302e+01,3.626645250590549381e+02,-2.138999352142154464e+01
2.182597593005581871e+00,3.601123966389769748e+02,-3.030368658881361554e+01
4.337993066479874926e-01,3.608411987846567399e+02,-3.092602045390354348e+01
-1.141626888415199659e+00,3.600202971689263904e+02,-3.150005158299695296e+01
-3.413587694542457029e+00,3.607274515279455045e+02,-3.206925103554678458e+01
-5.524814225316831084e+00,3.606801880585800291e+02,-3.258268353162586095e+01
-7.477402485742729255e+00,3.608836542692923217e+02,-3.285287255561065223e+01
-9.950307105390486129e+00,3.609897358000646364e+02,-3.299989024818267325e+01
2.672038484376491496e+01,3.494734505381694021e+02,2.198050172086808374e+01
2.721650198879724769e+01,3.508731600346771415e+02,2.057505434432855296e+01
2.807705940747512585e+01,3.524120473064148200e+02,1.716322658154805580e+01
2.808095858750603213e+01,3.541448695644236864e+02,1.581751085688855873e+01
2.833084980175102530e+01,3.539423617007145708e+02,1.370874741175240885e+01
2.746518357512937314e+01,3.525868405930803533e+02,1.918923127166617348e+01
2.781497471170074220e+01,3.557918834283628939e+02,1.041669262519393868e+01
2.753846832690430801e+01,3.558694603713364586e+02,8.383479628569958209e+00
2.792885294792837314e+01,3.557932342587998846e+02,1.249167565186632700e+01
-2.081225199687817096e+01,3.572503137713105730e+02,7.622078585204255852e+00
-1.989758674794350668e+01,3.587197282893822603e+02,8.790683658235225906e+00
-2.181097553755808605e+01,3.563549804776340579e+02,6.138886947578988007e+00
-1.959043344391934482e+01,3.586889742129206411e+02,1.414303523658873019e+01
-1.934320074247688837e+01,3.582607832696283481e+02,1.614816362447550802e+01
-1.970614084281031353e+01,3.594076713710639410e+02,1.208685983110717110e+01
-1.924219298921534005e+01,3.603580029519300751e+02,1.022596078740807002e+01
-1.887894373515005952e+01,3.578750242433334847e+02,1.858855149144810071e+01
-9.901311102641077611e+00,3.486258556732402099e+02,3.573541377502839822e+01
-8.438254965472683722e+00,3.476000622242063969e+02,3.651828009083555315e+01
-6.824430061545429638e+00,3.480010271307245375e+02,3.762006384828732308e+01
-5.069517238589337893e+00,3.486753950087760359e+02,3.846581296800551542e+01
-1.367893956407163714e+01,3.528172139317082951e+02,3.162855871608886460e+01
-1.225388978596879141e+01,3.529412347845190538e+02,3.331861360577511988e+01
-1.011129880959053295e+01,3.507624483924465721e+02,3.580622423392795639e+01
-1.088742543249547623e+01,3.528779864413948530e+02,3.485490424261909936e+01
1.336190352467525599e-01,3.470855874924246791e+02,3.842836792832252257e+01
-1.411733561107906709e+00,3.479994068291382519e+02,3.866192655619229157e+01
-3.033171758378703231e+00,3.488481539705936711e+02,3.875573524557167815e+01
1.552979475955484023e+00,3.480802704428425614e+02,3.850248329557002336e+01
3.045012716189879232e+00,3.491035726872880787e+02,3.828109008793075674e+01
4.673723427747070502e+00,3.501614141930054416e+02,3.791854792593299095e+01
6.321801389538663329e+00,3.511777732715310094e+02,3.739208227601434942e+01
9.711773151487655298e+00,3.511447872808176953e+02,3.576255391708668441e+01
1.150740179597633883e+01,3.521412633318765870e+02,3.480279656664480825e+01
8.104117170616419230e+00,3.520262918262691301e+02,3.663446142767743652e+01
1.352688517340266472e+01,3.529502298976391899e+02,3.369695828799912363e+01
1.692824887610051476e+01,3.524015827314690341e+02,3.165731116297861547e+01
1.554455634520482477e+01,3.536127373105689458e+02,3.253246811224165924e+01
-1.760236574280789057e+01,3.565249140290034688e+02,2.467944356055920707e+01
-1.616817231407013011e+01,3.568485923553103021e+02,2.657816177163763882e+01
-1.547462004807069746e+01,3.557600502655901664e+02,2.846841857114840479e+01
-1.380196692643721335e+01,3.562347772623431297e+02,3.015381295230021053e+01
-1.299543830304722292e+01,3.548540835948116978e+02,3.189639507886430891e+01
-1.774041685309864391e+01,3.580286613821947981e+02,2.085806286130315002e+01
-1.668779725736488473e+01,3.580882299767716859e+02,2.291518185173846689e+01
1.893731879679654639e+01,3.528195584041032475e+02,3.037420662808146332e+01
2.072134892017932017e+01,3.523889066079133272e+02,2.909081804967839702e+01
2.353558421532934020e+01,3.511642373792277567e+02,2.652145060784337005e+01
2.243363927894669985e+01,3.526901035398348085e+02,2.750865856885360472e+01
2.485047210499928028e+01,3.512982306894725752e+02,2.475579442402232644e+01
2.613185453042296658e+01,3.511667914367517369e+02,2.267071359683215093e+01
-2.252438790499979859e+01,3.580282628686218231e+02,-3.099053326446917112e+01
-2.431270101204611933e+01,3.574893907403003936e+02,-3.021130403345375370e+01
-2.544343890137790254e+01,3.583820646155775762e+02,-2.908224079787619232e+01
-2.814039293615746118e+01,3.581424814563882251e+02,-2.706886328626613647e+01
-2.970642552385837121e+01,3.575881317942149735e+02,-2.606716426032688716e+01
-2.645480581138952303e+01,3.587555016033606421e+02,-2.775207408781983887e+01
-3.125783635132425076e+01,3.568610808056894825e+02,-2.495487526650547494e+01
-3.272428713892899310e+01,3.558353390407864936e+02,-2.358754346124705847e+01
-3.378409730844683878e+01,3.544975258967882610e+02,-2.219227058821503462e+01
-3.454592427646660013e+01,3.549565123063007377e+02,-2.088970641911417303e+01
-3.508211366984657786e+01,3.550892541839305636e+02,-1.962959638384482375e+01
-3.467550386165755327e+01,3.558418855927895379e+02,-1.898603358430534627e+01
-3.503937159163021420e+01,3.560198263990739065e+02,-1.602917470166219971e+01
-3.397271550151555886e+01,3.565080166966807269e+02,-1.794021703165708104e+01
-3.428917065892918004e+01,3.567944299717951822e+02,-1.458290560710196004e+01
-3.519644923341598997e+01,3.569017529866206360e+02,-8.438993791061701444e+00
-3.443614168058309133e+01,3.572115359218520325e+02,-1.089309182452284830e+01
-3.323709380054855700e+01,3.574324286983345473e+02,-1.286581170949403230e+01
-3.416158909266591337e+01,3.578615967425022859e+02,-6.291577347534580866e+00
-3.233083933591441905e+01,3.587631277390785272e+02,-4.125577738250900239e+00
-2.993753624676372738e+01,3.593146156659872190e+02,-2.868639843695332203e+00
-2.618955014241412371e+01,3.584417324853552600e+02,-1.421356979532824028e-01
-2.719715150497051326e+01,3.595195136677668302e+02,-2.014490674158261996e+00
-2.341112696790317216e+01,3.578447672884522035e+02,7.629347885496224890e-01
-2.295451080877889893e+01,3.569053363506612868e+02,2.695686116239119912e+00
-2.165984017360240799e+01,3.573813811684807433e+02,3.885163344734597235e+00
2.653525863492462378e+01,3.578990167973381062e+02,7.638353189519218489e+00
2.447093537580336076e+01,3.596678648365061690e+02,4.538805361871744104e+00
2.520897111130167900e+01,3.594988419165364917e+02,6.793030321942252314e+00
-1.224193020175801649e+01,3.604857759769821541e+02,-3.316348337974380200e+01
-1.444963725425839840e+01,3.600543975637125982e+02,-3.308672180208242253e+01
-1.655628905671815687e+01,3.596465842681661798e+02,-3.280411708844365393e+01
-1.835885497587188553e+01,3.594185981770597778e+02,-3.231734394449824777e+01
-1.956728712670101800e+01,3.582540254279144278e+02,-3.228273495074711974e+01
-2.087242734734319427e+01,3.587237234883833707e+02,-3.155533270026309367e+01
1.833927471221151251e+01,3.630763141221002570e+02,-6.687254175343078977e+00
1.721148527240431747e+01,3.633334233622661600e+02,-8.657566193915528174e+00
1.439022410623399395e+01,3.639849786360917960e+02,-1.455819226238501329e+01
1.452893845745606072e+01,3.645419580872412553e+02,-1.154831162229933739e+01
1.376747011840262758e+01,3.649205702311216442e+02,-1.310871121189520849e+01
1.518410804962698180e+01,3.642778692196006887e+02,-9.637721560251527819e+00
1.276682287658722359e+01,3.645655318633274078e+02,-1.622320956387614999e+01
1.120416409505974364e+01,3.649415689292522416e+02,-1.790810768431597211e+01
1.124141358030255944e+01,3.638873509782006295e+02,-1.981772261835166660e+01
2.299796588161490618e+01,3.605531624906979573e+02,2.917052355996611723e+00
2.138593174234165417e+01,3.612993360096267565e+02,1.299240832540513146e+00
1.991508904680497238e+01,3.619422137008671712e+02,-3.078232831904779143e-01
1.855956235443767355e+01,3.626734535073732673e+02,-1.748872064715298658e+00
1.815582757296668248e+01,3.631412851696580333e+02,-3.590168506597753328e+00
1.702155864119421125e+01,3.638171880698863561e+02,-5.370549696944788565e+00
8.937528823566243119e+00,3.623205478243951916e+02,-2.474112776259853064e+01
8.416660156339613508e+00,3.612472502465967636e+02,-2.601985670401395723e+01
9.696016689758714335e+00,3.629924427885633236e+02,-2.324929507735173217e+01
6.878935872767913295e+00,3.615883542428703663e+02,-2.718542830545411704e+01
5.613785484440162676e+00,3.615557259795895106e+02,-2.815430857951120913e+01
4.279754219413705485e+00,3.614590512043787385e+02,-2.906866612519133142e+01
2.741703191010095964e+00,3.614679806798795880e+02,-2.985631583790613774e+01
9.556481500680618524e+00,3.642568425990024821e+02,-2.202135607563625896e+01
1.036521122791363325e+00,3.625114086019632396e+02,-3.024611165185819317e+01
-6.960748631072313231e-01,3.625201444757614127e+02,-3.081424748510389122e+01
-1.955323183803471920e+00,3.617416303453721866e+02,-3.146553957359540021e+01
-3.717025381730515221e+00,3.626424617122339100e+02,-3.145560989943461294e+01
-4.926734376661446646e+00,3.620166531459968837e+02,-3.204674196205865400e+01
-6.747360188940696446e+00,3.621974684685769716e+02,-3.223626363841985665e+01
-8.690555616779739978e+00,3.620156107089364923e+02,-3.244339408168064409e+01
-1.137150208218658776e+01,3.617847321250585537e+02,-3.243151123873465735e+01
2.653321987912596569e+01,3.528431441355740503e+02,2.124523683121126894e+01
2.755969833269210767e+01,3.543684106593790943e+02,1.791120718270255807e+01
2.741617916286181611e+01,3.561131496366768943e+02,1.670065531302520867e+01
2.784547290695945065e+01,3.558766000214706651e+02,1.460272532802884093e+01
2.674036033160275494e+01,3.546106709147602487e+02,1.993236800366653227e+01
2.706720082104593317e+01,3.578611025723795365e+02,1.168333592106373331e+01
2.682612350245138089e+01,3.579189918682242251e+02,9.638950208491449345e+00
2.714500027082655720e+01,3.577363914755004544e+02,1.363155020015124208e+01
-2.053996129151733285e+01,3.581976371603182088e+02,5.335322861229824021e+00
-1.949315441926679782e+01,3.594725676177546916e+02,6.609262073744475607e+00
-1.863449815992554548e+01,3.609604896853738865e+02,8.075131229495758234e+00
-1.861429968866408302e+01,3.607548029455791720e+02,1.350153807419415841e+01
-1.793991908314048800e+01,3.602270045133078611e+02,1.571033144089123113e+01
-1.792778341645933793e+01,3.593058632329951365e+02,1.755231009323898661e+01
-1.829973144914686500e+01,3.618628019985462743e+02,1.168602697864047713e+01
-1.778051222724895197e+01,3.624618468588205928e+02,9.531662881305187796e+00
-1.682004842237210340e+01,3.592421375456505075e+02,1.954742668252890780e+01
-8.638795803762544523e+00,3.493851541408444064e+02,3.700790609422215027e+01
-7.096306764033673886e+00,3.497021293770582133e+02,3.804146636970844497e+01
-3.740649558049712553e+00,3.505422413924765692e+02,3.879033287054313206e+01
-5.496767156427745604e+00,3.506918173220695962e+02,3.863290285002081959e+01
-1.153434521102915156e+01,3.549692161643173449e+02,3.354289561670537267e+01
-8.639807396289597818e+00,3.512634909591578776e+02,3.714443981738045863e+01
-9.499483014576451723e+00,3.529924601437019760e+02,3.618100514733161788e+01
-1.006407808689874273e+01,3.550137741565191618e+02,3.504640187510662486e+01
-2.002537386299518829e-02,3.491731700430048022e+02,3.873117939127161691e+01
-1.715024484734430921e+00,3.503470045595753390e+02,3.875618061663438141e+01
1.505535560458730604e+00,3.502608965886064425e+02,3.859354117086076030e+01
3.064905513874231602e+00,3.513885545269550335e+02,3.825420177623729501e+01
4.681434471224990901e+00,3.525017276365674093e+02,3.780169914919193985e+01
6.336651938139882034e+00,3.534328872457152784e+02,3.721646075055048186e+01
9.998885470947360687e+00,3.533009297064009502e+02,3.563920295116828640e+01
1.210058265751554174e+01,3.540322528292160200e+02,3.450286208632717688e+01
8.037508500635642150e+00,3.539215623962077188e+02,3.653059932903886420e+01
1.416331297629479380e+01,3.548014743981348715e+02,3.334303707140831818e+01
1.756216211584543530e+01,3.541287812617703707e+02,3.127447518457540809e+01
1.609788868587946808e+01,3.553335477766516419e+02,3.217122023107408779e+01
-1.591986182322196264e+01,3.579787631698746395e+02,2.477456121550607193e+01
-1.436008855467854417e+01,3.576412549169828594e+02,2.792208412525135941e+01
-1.426401886291968779e+01,3.585456255188022965e+02,2.593861652450799227e+01
-1.201848398538396268e+01,3.569245113430444007e+02,3.173169457826391238e+01
-1.275610977522443790e+01,3.580384752452342241e+02,2.940581740766052476e+01
-1.562589991705936399e+01,3.591711205895770149e+02,2.155582596212397561e+01
-1.445514912303974775e+01,3.590906777951844333e+02,2.366190661148871754e+01
1.949808013096436810e+01,3.546834565361152158e+02,2.987206431595803124e+01
2.102086047139172464e+01,3.539848220646796335e+02,2.868169344115253949e+01
2.383236267292876320e+01,3.531728013991798321e+02,2.572654770709443994e+01
2.249401067714902069e+01,3.545930346227342511e+02,2.705165356088985718e+01
2.538036274561842376e+01,3.528527796482314898e+02,2.338378535191910856e+01
-2.361887954723957961e+01,3.589708082106756137e+02,-2.992219468431756368e+01
-2.175786442322477399e+01,3.595835521318886094e+02,-3.056515698464448860e+01
-2.457320676689768746e+01,3.593084987030176194e+02,-2.845299384693964839e+01
-2.789465187421873082e+01,3.585754149834785949e+02,-2.616573568690701634e+01
-2.991720365073700805e+01,3.578750170114708453e+02,-2.504263762632755075e+01
-2.568717683707002664e+01,3.592108286432322188e+02,-2.690279147185446007e+01
-3.179461543087539610e+01,3.570305984550305425e+02,-2.382232796743181424e+01
-3.351758669018859393e+01,3.560311838602253829e+02,-2.230447378043687223e+01
-3.377412647886028196e+01,3.563269214758440739e+02,-2.092289575937933321e+01
-3.292717660005578750e+01,3.569272304351982825e+02,-1.993332824554810045e+01
-3.292935814880029710e+01,3.571845732131905038e+02,-1.652001069645682207e+01
-3.183162754818991402e+01,3.574974270511063423e+02,-1.849416036870725932e+01
-3.193815491982350352e+01,3.576517973712163894e+02,-1.477269116625751977e+01
-3.350527801140950146e+01,3.579240127844555559e+02,-8.940059581344566908e+00
-3.212002412136634177e+01,3.580654763286056550e+02,-1.095972829152823991e+01
-3.064207189533705744e+01,3.581603965737792805e+02,-1.271609089708218576e+01
-3.247193607956094752e+01,3.586195964984061675e+02,-6.778623886091363460e+00
-3.043344113299795950e+01,3.592777723150812790e+02,-5.739226269603474151e+00
-2.819406808762038708e+01,3.597859174902610562e+02,-4.709193935376733364e+00
-2.412130039430994799e+01,3.590006635566879254e+02,-9.339935527846119356e-01
-2.592805715976124858e+01,3.601853687709949554e+02,-4.472683284917776447e+00
-2.482307688126778089e+01,3.599064778291978541e+02,-2.454794960656121461e+00
-2.212980484718064034e+01,3.589987910781046594e+02,-4.581668313918707547e-01
-2.165478292922878722e+01,3.583169962889207341e+02,1.610908594553706052e+00
-2.035979593951574174e+01,3.591484150000354703e+02,2.997083623907223604e+00
2.544919651675622418e+01,3.597824406206853496e+02,9.039238419827771764e+00
2.371684584434978049e+01,3.607992671185388076e+02,6.309289598380305009e+00
2.247812835439063761e+01,3.613535765624653777e+02,4.818216034386392899e+00
2.391869170779706621e+01,3.611201679449388280e+02,8.432745054408950836e+00
-1.352670518341805206e+01,3.613783933442966259e+02,-3.237467547355962694e+01
-1.563120284530373993e+01,3.609799166138299142e+02,-3.211788301879234808e+01
-1.762781692322333527e+01,3.605962682575711824e+02,-3.163770671731397144e+01
-1.970329062156788069e+01,3.600204785380379349e+02,-3.122635007631785697e+01
1.587301171058359017e+01,3.641605052415959562e+02,-7.439369336860431225e+00
1.227658109914352735e+01,3.655935312426611290e+02,-1.456495051918260408e+01
1.305588697881098525e+01,3.654044227906138076e+02,-1.053656686705889278e+01
1.239526871555714571e+01,3.658806299089511072e+02,-1.194431221414053113e+01
1.153744111181511833e+01,3.663184072988111097e+02,-1.320759019962666869e+01
1.357288178849140436e+01,3.650212625491600988e+02,-8.801927683018378801e+00
1.060453560297704456e+01,3.661117477327460392e+02,-1.604965766930208915e+01
9.301308167628960177e+00,3.661801160475420147e+02,-1.800618135006977028e+01
9.597735556961989545e+00,3.652358278896759316e+02,-2.011515330195624429e+01
2.103550447355263131e+01,3.618602771053054425e+02,3.345636126532124166e+00
1.952543946165630118e+01,3.622796700447100307e+02,1.811827789947267675e+00
1.801292271670634193e+01,3.626929342550583328e+02,3.050864779793611703e-01
1.664102249095318342e+01,3.633450432425131567e+02,-1.390523422222369909e+00
1.610384518179482427e+01,3.640241824458049678e+02,-3.251130582197768959e+00
1.502425838202369768e+01,3.646338240680285594e+02,-5.029354298265480416e+00
7.889339652226952992e+00,3.641340625678531069e+02,-2.430007089350541349e+01
7.084730216259753632e+00,3.630696035463956264e+02,-2.601127746626734449e+01
5.385531714954179705e+00,3.633744260795293712e+02,-2.715857701181515438e+01
3.967256885867231908e+00,3.630419749218276593e+02,-2.844003754912775506e+01
2.451290325238781875e+00,3.630182077695642988e+02,-2.933749920356490648e+01
7.906384939845906956e+00,3.653817938410061288e+02,-2.240805239538880045e+01
6.915783090477827244e-01,3.640017051253338423e+02,-2.930755440907240938e+01
-8.694729207365661239e-01,3.637756138828760868e+02,-2.995834734613127992e+01
-2.491218429400564816e+00,3.633637086196987980e+02,-3.067234710504536110e+01
-5.888096640295700013e+00,3.631131144215562472e+02,-3.138594501254592828e+01
-4.417410183084868436e+00,3.636131880577665925e+02,-3.064492279053390078e+01
-7.926381334988210625e+00,3.629619535480766217e+02,-3.151637706893244939e+01
-9.978436681301360522e+00,3.625621293020241183e+02,-3.171771127735972939e+01
-1.236184630631863257e+01,3.622063703946226383e+02,-3.145572290459477216e+01
2.568824062009054643e+01,3.547097342649033180e+02,2.200565116412135325e+01
2.670407916054579189e+01,3.564164698940172684e+02,1.876729991617499138e+01
2.627677212236161708e+01,3.582345120033682520e+02,1.744528919939071088e+01
2.684172718043115324e+01,3.579057762820454514e+02,1.550190619854134866e+01
2.573777306721072478e+01,3.565898555158473187e+02,2.088616808674432690e+01
2.604706533113865063e+01,3.596118023300944628e+02,1.341929125005692214e+01
2.579001933902656063e+01,3.597699926307459464e+02,1.111244426551229836e+01
-1.921955547385302054e+01,3.603625567700202623e+02,4.267525279183796094e+00
-1.816927158865589575e+01,3.617349122523139044e+02,5.686300465714225538e+00
-1.719745758417042936e+01,3.630883702060334599e+02,7.237943138169700141e+00
-1.655087127742971376e+01,3.629691363752947382e+02,1.280656269644897804e+01
-1.691335509763525735e+01,3.618037730277466721e+02,1.450496855876337321e+01
-1.609701540376516604e+01,3.604473692284706772e+02,1.778993047788681636e+01
-1.545921472199612978e+01,3.615782598506592649e+02,1.621574727248279402e+01
-1.642035979011188829e+01,3.636873962591583336e+02,1.084379115410819949e+01
-1.599615649522870164e+01,3.642576584724410509e+02,8.655252115922539957e+00
-1.475292720183575312e+01,3.601850762440117251e+02,1.978171045190300958e+01
-6.932521795278640653e+00,3.517080997393198345e+02,3.811010847407590774e+01
-3.135748891840634656e+00,3.524693597341155282e+02,3.859217394576110394e+01
-4.793118199043592043e+00,3.528675089509890199e+02,3.846588315779440137e+01
-1.051906272002188558e+01,3.568448847294342272e+02,3.354157563086280192e+01
-7.950633219728485912e+00,3.534364791918934543e+02,3.723862333248357714e+01
-8.495040578942875342e+00,3.553001149369951577e+02,3.625933594042943753e+01
-8.877103018895272868e+00,3.571048222801246652e+02,3.499215820595016169e+01
-5.514250457522873461e-02,3.513910687578008378e+02,3.864942164637430722e+01
-1.544931744613357250e+00,3.525921341405849034e+02,3.856533412742205513e+01
1.495339216834893570e+00,3.526582582725474140e+02,3.843477780981017844e+01
3.136906025535006748e+00,3.539191479023024272e+02,3.800280211380102457e+01
4.976005187447941402e+00,3.550024155638220122e+02,3.740851157140227912e+01
7.025270886247328761e+00,3.558255633839585812e+02,3.662892625763255694e+01
9.129424784331035880e+00,3.552355470382565841e+02,3.591012942328211466e+01
1.094089663797517709e+01,3.553580205285064721e+02,3.503711887374396383e+01
1.286798310107079502e+01,3.559155424858745960e+02,3.398713825492255580e+01
1.485428688713583156e+01,3.568066704087689800e+02,3.278130780914850106e+01
1.807016917634164344e+01,3.558954160672901139e+02,3.077851657872249902e+01
1.668055534411454488e+01,3.569505984683552242e+02,3.159451712560350245e+01
-1.257569225982811290e+01,3.589474099534908760e+02,2.737754997468799800e+01
-1.245504002616717010e+01,3.594314847820161276e+02,2.539515394155374040e+01
-1.125066198857663480e+01,3.586581354628536360e+02,3.038667807295170675e+01
-1.027262497621623716e+01,3.585188621004214156e+02,3.201550059763356160e+01
-1.091751731322404950e+01,3.594428080467221776e+02,2.851783469673744520e+01
-1.359923342102795019e+01,3.599374544280710779e+02,2.172750003847609790e+01
-1.241238913498856711e+01,3.598229241511120904e+02,2.361654385425737601e+01
1.960681206431227608e+01,3.567350317320320983e+02,2.941839013390308111e+01
2.105680098729126470e+01,3.558150516140805166e+02,2.827542042122936294e+01
2.355697180327428342e+01,3.555185546996910944e+02,2.532749674199042289e+01
2.460756807605111618e+01,3.544256051162377048e+02,2.408391392248775986e+01
2.232505862760046256e+01,3.566778972394956781e+02,2.658376914884094333e+01
-2.268430577368752665e+01,3.598141401348187287e+02,-2.918848464561273914e+01
-2.062074412649175414e+01,3.603064937232458647e+02,-2.982713866973966788e+01
-2.351353253956517264e+01,3.597009050578574261e+02,-2.757804673396400474e+01
-2.869588599629764758e+01,3.584039064699865662e+02,-2.452557921484351766e+01
-2.665163562376559980e+01,3.589817600731830112e+02,-2.529126378661411323e+01
-3.066447167251490669e+01,3.577282630194509920e+02,-2.354540169071047728e+01
-2.447092267858784709e+01,3.595092013613927975e+02,-2.584489289711323323e+01
-3.247335456250262808e+01,3.569691352737582974e+02,-2.249139397806985130e+01
-3.177360076139134293e+01,3.573612819067053579e+02,-2.169573188471608560e+01
-3.079838919231842809e+01,3.578102834290928058e+02,-2.049475597859212428e+01
-3.039374252565178125e+01,3.579915390555281647e+02,-1.678366387033435103e+01
-2.954878968705707720e+01,3.582303704203001757e+02,-1.901124982968287824e+01
-2.955100816442149991e+01,3.582216614172467644e+02,-1.462529582080200186e+01
-3.109018173865081280e+01,3.586856686535962808e+02,-8.699897062114640534e+00
-2.941959718298572568e+01,3.586975387593059281e+02,-1.054657436603558196e+01
-2.781915060221864522e+01,3.587471812956416670e+02,-1.245971369633716641e+01
-2.877336919395122194e+01,3.592933087864109893e+02,-7.770293246280907340e+00
-2.658512276175131106e+01,3.598230962625963798e+02,-7.053479273391261017e+00
-2.240304193782714393e+01,3.602110338408223242e+02,-2.396701499440781813e+00
-2.435095415903656502e+01,3.603919002185941167e+02,-6.530055393657368867e+00
-2.354677194266643880e+01,3.606588801393812105e+02,-4.235240507606284233e+00
-2.078716965266263372e+01,3.602238286741169304e+02,-1.149899511102195682e+00
-2.039770224068553972e+01,3.598932584911318031e+02,7.779982722906657600e-01
-1.914989181946415542e+01,3.612628296905531897e+02,1.808692363462225394e+00
2.403162895187747239e+01,3.614797796907940324e+02,1.066074569476274192e+01
2.222600425592193574e+01,3.619900833141574026e+02,7.173157741322524039e+00
2.072998213392497391e+01,3.624229267749903443e+02,5.585624440922621226e+00
2.238955074829803493e+01,3.623515808778658425e+02,9.383703986239229522e+00
-1.448758722692054235e+01,3.617417800880172081e+02,-3.118504353666081741e+01
-1.647961327228341233e+01,3.612847449446228438e+02,-3.072001709262090685e+01
-1.856860391031026580e+01,3.607666547868528255e+02,-3.033104941697818902e+01
1.404042678852605164e+01,3.648791572178960223e+02,-6.875400603473291739e+00
9.967272183190834411e+00,3.668780024434820461e+02,-1.435108686592883842e+01
1.124697598941898136e+01,3.659506240505816663e+02,-9.396163434636463307e+00
1.078546401006673428e+01,3.664835099417207971e+02,-1.099617103781483429e+01
9.658005263468112389e+00,3.670117018059209499e+02,-1.248572879497769783e+01
1.182815871339462710e+01,3.654536089566771579e+02,-7.398787329211309327e+00
8.333644383075570872e+00,3.671237957302653854e+02,-1.598551762804342502e+01
7.606094737771632808e+00,3.668696053526841752e+02,-1.826104471753362191e+01
7.759282439768064421e+00,3.662046043209815025e+02,-2.047439672112216513e+01
1.916072489886843755e+01,3.627119541248279688e+02,3.978736996355626943e+00
1.746970739981059850e+01,3.628923193833794016e+02,2.354658393004663619e+00
1.578581303031024241e+01,3.631444318624429570e+02,5.839986339474725341e-01
1.446885053993301007e+01,3.638191131965382965e+02,-1.377057811982439262e+00
1.360456823417173489e+01,3.646370516509946356e+02,-3.253237438003532489e+00
1.257698571411623867e+01,3.651852943641566753e+02,-5.180652497225770148e+00
6.424139083819913054e+00,3.653320619145926003e+02,-2.403960180808255842e+01
5.823555206564430264e+00,3.644939813026758202e+02,-2.564974569328773413e+01
3.657444000041440990e+00,3.642502909532667559e+02,-2.754997988869693160e+01
4.087341023434158949e+00,3.650246135242848027e+02,-2.627202363192300538e+01
2.126033459374374157e+00,3.642766712760853238e+02,-2.840932318792405198e+01
5.771015763169234702e+00,3.663039959832084378e+02,-2.245534297629539111e+01
5.735816678748539843e-01,3.650239043338268061e+02,-2.789373906408956572e+01
-1.032170857179904644e+00,3.646991251475211016e+02,-2.869058317647369449e+01
-2.829300604763249183e+00,3.642688059468663369e+02,-2.944845642304244748e+01
-6.786796292237472272e+00,3.636113970994781539e+02,-3.034262142770922210e+01
-4.935736766486012783e+00,3.640464577339565722e+02,-2.956445134295615418e+01
-8.973786450924997382e+00,3.631917596159346431e+02,-3.052558833293674212e+01
-1.100084288180440240e+01,3.627342761395584603e+02,-3.055389716826113755e+01
-1.322089858632802262e+01,3.622428096975129961e+02,-3.010291840786170781e+01
2.466395390966156498e+01,3.563965857806550162e+02,2.307961637875820315e+01
2.554086508548844492e+01,3.583758075562540739e+02,1.960614322853460223e+01
2.509961674210611449e+01,3.601169248887318304e+02,1.787904040337836165e+01
2.569904950708076896e+01,3.598483613254549027e+02,1.567632908489001053e+01
2.453002596602919994e+01,3.582989740781694650e+02,2.201514650292586595e+01
2.470909669530288255e+01,3.613021315353565228e+02,1.456901283853700235e+01
2.478507669368006816e+01,3.610834393036054735e+02,1.251556736060048891e+01
-1.804036679000904897e+01,3.626375408662044606e+02,3.055039939079180478e+00
-1.692222970353653722e+01,3.639049860563694097e+02,4.668406127481154577e+00
-1.561289427433261601e+01,3.649392388943097671e+02,6.220537986086196902e+00
-1.466792629940736248e+01,3.628982931091790078e+02,1.449289264874982308e+01
-1.446841362957598065e+01,3.641294380099736827e+02,1.237575050831183532e+01
-1.380053040091532957e+01,3.612516019167011336e+02,1.805529330073999006e+01
-1.302226686604622508e+01,3.623814143408000064e+02,1.618185185278227323e+01
-1.437432514467500333e+01,3.649375713981700073e+02,1.012279566214029636e+01
-1.406344512547527437e+01,3.655611401565386132e+02,7.715066147142338515e+00
-1.254351522704728161e+01,3.608071706222308421e+02,1.995301513738846566e+01
-6.197756052115694914e+00,3.537737586197968085e+02,3.796687852161803534e+01
-3.314872737782764922e+00,3.548184071009698073e+02,3.826509639144268959e+01
-1.646755275866562007e+00,3.548406080155271525e+02,3.830447197134487425e+01
-4.855223638222724958e+00,3.554358289578988774e+02,3.793595704480348729e+01
-9.055347128805127710e+00,3.585371453531084285e+02,3.348793031425253730e+01
-6.734618840108968385e+00,3.556928758741308911e+02,3.718798505009571187e+01
-7.185455702158717095e+00,3.576112568284472673e+02,3.600290767398482927e+01
-7.498018062408684514e+00,3.592264495448225148e+02,3.428683433853056783e+01
-3.259198670247320795e-02,3.538880005956520449e+02,3.840976604966887464e+01
1.552814489496883610e+00,3.552847766389470507e+02,3.805520226039359244e+01
3.332066156396821022e+00,3.564153589644174644e+02,3.755186687132634660e+01
5.366859210545888104e+00,3.572795168713822136e+02,3.686766630357881525e+01
7.579514612651989225e+00,3.579415612126470023e+02,3.600720239163404557e+01
9.227012402021745885e+00,3.569824074090577710e+02,3.557836937523838117e+01
1.132954404154217976e+01,3.572579853940532644e+02,3.457758696630519069e+01
1.328443180852060124e+01,3.576443551451318967e+02,3.351756470777158370e+01
1.430941235196685390e+01,3.589995274017200018e+02,3.264101455780906491e+01
1.609734183441438304e+01,3.584609464419841629e+02,3.167440014563687356e+01
1.810728397270518641e+01,3.578510308031096656e+02,3.038111417350262400e+01
-1.062289486400459815e+01,3.598897737146023132e+02,2.656970230768478558e+01
-1.032712322070151245e+01,3.602605231609408634e+02,2.452509086091340151e+01
-9.484746556001468321e+00,3.597354338396336288e+02,3.020421974064397119e+01
-8.421827915063587966e+00,3.597974387855587679e+02,3.194958688937599689e+01
-8.944516048654742590e+00,3.602766513850219212e+02,2.831171301281408148e+01
-1.145148876784890390e+01,3.604202049091460367e+02,2.214238154605382292e+01
1.931278254929941340e+01,3.587526818944203342e+02,2.899626869743895696e+01
2.086748879081672925e+01,3.577844961014773730e+02,2.783708565387857448e+01
2.347657471908885185e+01,3.575374321734552154e+02,2.448204026097400288e+01
2.197386790569384374e+01,3.586536169405947021e+02,2.600221534089326525e+01
-2.145714608178867167e+01,3.601922428046335654e+02,-2.823600953981052797e+01
