-3.168003999529048098e+00,1.556452371745752714e+02,5.145528285436977711e+00
-1.197729837380934192e+00,1.545894224414410303e+02,6.306525879764361520e+00
-3.399939300002512432e-01,1.524501302299061365e+02,6.588012865142992780e+00
5.433919916237797132e-01,1.503284520277333343e+02,6.729112219872689593e+00
3.185148584171373809e+00,1.453159041516420302e+02,6.560412058721780681e+00
2.982049955475019942e+00,1.474211917138061949e+02,6.541292387119966634e+00
2.446696421810081290e+00,1.495552444734536550e+02,6.566137557660418622e+00
6.982102684918694457e+00,1.379617387311074879e+02,6.006736627123295591e+00
5.056184481541154518e+00,1.447256895572261897e+02,6.188381014003105918e+00
5.660378458316669636e+00,1.425237760107735312e+02,6.125356453040758709e+00
6.398290836640506463e+00,1.404261830374428257e+02,6.026940621018205491e+00
8.293342606711931353e+00,1.361285726945427541e+02,5.716553671750673971e+00
-1.300199778334714118e+00,8.281652663528974756e+01,-1.070484889856727762e+01
5.734571824384844252e-01,8.187452495794059359e+01,-1.058774368134088029e+01
9.136696012389329269e+00,8.843067678457899206e+01,-8.152362176014317896e+00
8.181419459394028593e+00,8.655336908177268640e+01,-8.559730859027691707e+00
1.494441871604912997e+01,9.569813698420804826e+01,-4.880165323176907322e+00
1.388488695786242033e+01,9.363286822667578235e+01,-5.606596935201000775e+00
1.279400605266682689e+01,9.184858618357984028e+01,-6.272283824447095313e+00
1.173486273775234423e+01,9.008436253876907074e+01,-6.845512878849591587e+00
1.075936819569073677e+01,8.818264252680174309e+01,-7.376245944897677376e+00
7.208691742551192050e+00,8.398891994491293644e+01,-8.944855057706520896e+00
3.975915799998853473e+00,8.285783224340015352e+01,-9.983295251430424955e+00
5.858251004401580531e+00,8.217557470664752373e+01,-9.425114727796135128e+00
2.489016053963235997e+00,8.111998180585678142e+01,-1.030873565705318562e+01
1.687118230327366319e+01,9.800265614186051266e+01,-2.753433757370185475e+00
1.733942605265883685e+01,1.002793289972144919e+02,-1.568526147395708392e+00
1.733977007931396486e+01,1.020930769449378630e+02,-1.110712517565062285e-01
1.782314109855639828e+01,1.084419776596568283e+02,8.810209197716645235e-02
1.734739139448775092e+01,1.064528970906069532e+02,7.846245794016617481e-01
1.684214175178407658e+01,1.041699146947817667e+02,1.260913248281021026e+00
1.610648801582462752e+01,9.568062995137236726e+01,-3.711737435144083719e+00
1.768272141103989270e+01,1.107995720286564421e+02,8.246566899870018119e-01
1.753156863640241880e+01,1.133619353997038814e+02,1.354508450754199345e+00
1.701037208752777374e+01,1.158290678784384085e+02,2.118606719944363448e+00
3.802281161505734808e+00,9.859967807956695651e+01,7.880877838875790076e+00
2.137829980317317968e+00,9.694264366437209901e+01,8.221135110916051758e+00
7.590343481788146107e+00,1.052664413943653443e+02,6.609486321783023755e+00
6.676766896423301567e+00,1.029491573457264053e+02,6.973535325544645502e+00
8.539727730529952154e+00,1.075513341029614907e+02,6.240814008162175242e+00
6.005779388414369535e+00,1.005690847991651538e+02,7.238732567244568372e+00
-5.838695505254859697e+00,8.727334112808799205e+01,4.063162998080201760e+00
-4.756504667100037942e+00,8.836733061848201487e+01,5.504671644058852564e+00
-3.458780216129996532e+00,8.920339639076331650e+01,6.865702805754388294e+00
-1.510402076338429822e+00,9.152725199653889376e+01,8.126797090261092649e+00
-1.946892989668990381e+00,8.956154014969584409e+01,7.934076881668296721e+00
-7.422783616220966607e+00,8.299611531533754771e+01,7.205665044191995605e-01
-6.805056604439650769e+00,8.372702109742100163e+01,2.420170290013167858e+00
-5.853321197142891563e+00,8.436104971183831935e+01,4.108178868675800288e+00
-7.772322650874748717e+00,8.230222116197555238e+01,-7.628570575756050687e-01
-7.969757240105705520e+00,8.154114753629305312e+01,-2.439266134616772774e+00
-7.989563139143086801e+00,8.085746940834661700e+01,-4.110839114195290023e+00
-7.767837543157327218e+00,8.097997826509904939e+01,-6.137584505459106055e+00
-7.104613545390950691e+00,8.104828364396306029e+01,-8.042092617035983437e+00
-5.807467696448895822e+00,8.069878701860797321e+01,-9.585763835759788520e+00
-4.213822570608188656e+00,7.991914193291398760e+01,-1.035593795206246703e+01
-2.825028192604607469e+00,8.141466027550166018e+01,-1.060958530632201580e+01
1.718299314211257922e-01,9.296823523197544148e+01,8.415548332778449492e+00
2.335396163799108749e+00,9.456238123087473468e+01,8.247208970487740487e+00
1.033668602668906011e+01,1.305768423981061517e+02,5.264107308970558563e+00
1.030944432946031419e+01,1.327832801413422885e+02,5.222577814418471576e+00
1.197154255341698104e+01,1.290113790293086709e+02,4.733570015645192086e+00
1.310939734922033040e+01,1.271000638565519978e+02,4.349595238269181152e+00
1.221361161065904355e+01,1.204555924610709781e+02,4.761883084128605503e+00
1.193834270835133538e+01,1.180724450801839822e+02,4.881531849494358255e+00
1.317476998899023499e+01,1.228201619057695950e+02,4.369542190969951889e+00
1.415517658520442978e+01,1.251731602293846493e+02,3.956953769224369921e+00
1.161838194740870733e+01,1.158597044454846809e+02,5.011604200323390046e+00
1.143056393068054888e+01,1.138612345279871079e+02,5.118674476386821937e+00
1.045304094526691152e+01,1.119379543450245080e+02,5.500332275966897555e+00
1.058192641213112850e+01,1.354152015583075581e+02,5.070895726451084329e+00
9.500711283031868959e+00,1.097790077214277744e+02,5.863173328381698468e+00
1.475302148483433839e+01,1.522357235921723486e+02,-8.201457720989097311e+00
1.413211718548618023e+01,1.542031388115586310e+02,-8.758141518039034068e+00
1.782944381209241769e+01,1.491962037015645421e+02,-5.416151987784424193e+00
1.618933298916797270e+01,1.515988865833396346e+02,-7.084429609835337871e+00
1.756841268064177086e+01,1.513509529062616252e+02,-5.891047633935443173e+00
1.911858072576682233e+01,1.490583280967800874e+02,-3.871219254558853962e+00
1.865608841988144917e+01,1.358075471046257690e+02,1.580019484553300657e+00
1.932221040631243980e+01,1.380304865672978849e+02,9.259283543889367252e-01
1.978672677141400982e+01,1.401977383347984016e+02,2.215519402781520597e-01
1.787900977876779862e+01,1.335685201135690363e+02,2.135542599021285071e+00
1.999485736238332123e+01,1.420642991085640290e+02,-6.940793524826105454e-01
2.003554448041914782e+01,1.439695678166666255e+02,-1.276744457496693741e+00
1.705292610240577389e+01,1.314469309426306722e+02,2.606773638479857880e+00
1.611149968172075120e+01,1.294926135324760708e+02,3.063783213231715763e+00
2.007019550146820563e+01,1.461838205569777074e+02,-1.553659944716768493e+00
2.007279500004754169e+01,1.485809164368546931e+02,-1.975332284409489603e+00
1.607578427505636753e+01,1.253208001635343862e+02,3.047058491357432786e+00
1.514970564572416833e+01,1.273805112203509964e+02,3.509742670185467261e+00
1.575786770819916427e+01,1.194759041919065510e+02,3.151962828771040392e+00
1.592153606036429636e+01,1.216108919259927461e+02,3.093507147432767113e+00
1.514900177043511320e+01,1.233767957450130837e+02,3.514280508390385194e+00
1.559467641207421096e+01,1.172544169863699040e+02,3.171278490262494643e+00
-2.884257002302417661e+00,1.621309704406542096e+02,-1.143350360549078459e+01
1.325208832277489535e+01,1.558333961041030022e+02,-9.418683333201579799e+00
9.007036914876257683e+00,1.584789942917929579e+02,-1.180442903302824575e+01
7.708875676404461252e+00,1.596756304994311790e+02,-1.238938232141883056e+01
6.383173143545525896e+00,1.588435507463426859e+02,-1.276620098231611244e+01
4.803429362106879985e+00,1.596380469110150671e+02,-1.318314399032858830e+01
1.320240881754185480e+01,1.580730617133178271e+02,-9.615649162039481723e+00
1.182952674117767344e+01,1.589272248090636026e+02,-1.046123671705351121e+01
1.044820841957421464e+01,1.597883283248114026e+02,-1.122585100293125571e+01
5.774688196198400902e-01,1.634852717747005784e+02,-1.326116162370537488e+01
-1.612840028782382973e+00,1.637939420894563227e+02,-1.243352771624731190e+01
2.554723141110253337e+00,1.628265828006880724e+02,-1.348783249750871782e+01
4.400247288386504252e+00,1.620265677895788201e+02,-1.336834227816444809e+01
-6.136607190340512830e+00,1.598035742695965666e+02,-5.671680454057405285e+00
-5.918331032050494045e+00,1.617218228025436133e+02,-6.630282546466826687e+00
-5.130714348007476389e+00,1.620874731969373101e+02,-8.491381274831280024e+00
-4.189934094457271385e+00,1.632160067722716974e+02,-1.001064811237031549e+01
-6.462241810735847025e+00,1.605313880803280142e+02,-3.270019293154064144e+00
-6.375339481516135720e+00,1.598655938975328468e+02,-1.532710633101300512e+00
-6.078601723366787724e+00,1.593788659581975367e+02,1.924603387501822027e-01
-5.564657482367277197e+00,1.591904558297641472e+02,1.755329681307319589e+00
-4.744206921062970039e+00,1.585243391161151578e+02,3.306784422369958065e+00
-3.505665687200323344e+00,1.578354826883215196e+02,4.798407270315131257e+00
-1.752794518515143229e+00,1.569609736134775062e+02,6.032355942988711917e+00
3.396647955029694632e-01,1.563209926734779458e+02,6.512768091497171952e+00
1.054173920159424238e+00,1.542158215669672074e+02,6.553383304915868734e+00
1.739888271122597807e+00,1.518904039629283034e+02,6.571527222069200036e+00
4.964707328897525862e+00,1.468546424171774447e+02,6.113751325473955944e+00
4.497977827237529702e+00,1.488445283321747752e+02,6.132976402692634110e+00
3.634677416085329682e+00,1.509264793933074031e+02,6.242472656410562593e+00
8.415737793744359152e+00,1.397288154583204118e+02,5.542883551900217753e+00
9.562988212301910096e+00,1.376913934984189609e+02,5.299048687577336381e+00
6.905743903680385820e+00,1.441291961445400034e+02,5.739605438005149551e+00
6.941025718330921634e+00,1.462612647174541962e+02,5.657053896030177498e+00
7.943331121387182669e+00,1.422951292542407202e+02,5.558349104282420683e+00
-1.083135304275839594e+00,8.054573089648368978e+01,-1.069576202895938444e+01
8.939836927065067940e-01,7.946303124763214498e+01,-1.055869456611357826e+01
1.002264689961163668e+01,8.623069256276372130e+01,-7.731477287726914227e+00
8.890189846177477762e+00,8.458776238070591091e+01,-8.242078093327769750e+00
1.518552295129585517e+01,9.342378014733330360e+01,-4.537527858881595932e+00
1.419602387218006889e+01,9.139807528466381825e+01,-5.262990934182528946e+00
1.318462047392291225e+01,8.958237282308874683e+01,-5.953080958890884844e+00
1.218582622755280553e+01,8.782502558620194577e+01,-6.554461890774634369e+00
1.160499472533021859e+01,8.575323510892565082e+01,-6.874427079499847437e+00
7.605150972630340789e+00,8.123775547950681641e+01,-8.816116075904684379e+00
9.032000853963484843e+00,8.244046780163375843e+01,-8.207908193972457411e+00
4.384099032298340859e+00,8.040240021963209927e+01,-9.886086293592304841e+00
6.207854274526642513e+00,7.957837578840471338e+01,-9.331274753659377197e+00
2.726154063835226182e+00,7.869628875301577864e+01,-1.027364673874379442e+01
1.680290563470757093e+01,9.567426430697906881e+01,-2.328294439044487518e+00
1.710688504854197589e+01,9.793756453525573136e+01,-1.126558784728210583e+00
1.698671254210987058e+01,9.989381751006044396e+01,2.534734842514083653e-01
1.635714424205846385e+01,1.019037556806959373e+02,1.620712576876925937e+00
1.680736861604911780e+01,1.087236513050192457e+02,1.822473602880595678e+00
1.609664624345281325e+01,1.062567841046231649e+02,2.304744538268643339e+00
1.542617897179818698e+01,1.038795067737337803e+02,2.707125685002168325e+00
1.613294468329196718e+01,9.332765700666601560e+01,-3.345981355387120715e+00
1.663854598855649058e+01,1.114716128955675174e+02,2.171946772939648440e+00
1.632927583520466541e+01,1.136479844569454940e+02,2.573205209752970291e+00
1.524488076263978087e+01,1.151053692361295759e+02,3.329426939888662673e+00
5.882847087401487762e+00,9.815508054611888156e+01,7.303572093024598644e+00
4.582503305717858133e+00,9.598179286338128691e+01,7.738573407863071907e+00
9.082729278760627523e+00,1.034544807522163552e+02,6.075311570328828736e+00
1.002340877168323274e+01,1.056174145734842114e+02,5.694577968267431345e+00
8.364326934056460772e+00,1.012014341389222238e+02,6.380878678433873574e+00
1.091789448559081421e+01,1.078206659482974885e+02,5.323685030378655370e+00
8.045141208305141234e+00,9.889062064321618095e+01,6.541243938654162093e+00
-5.076656492184610237e+00,8.596420712064596614e+01,5.162719862437825213e+00
-3.867455859973231824e+00,8.669998713645969701e+01,6.548835999900610716e+00
-2.395853816618553012e+00,8.728276773788356024e+01,7.686278606991074014e+00
1.620941160647397794e-01,9.039885645278017989e+01,8.474075556928632125e+00
-5.428541928522765403e-01,8.809603995897001028e+01,8.400958870483094643e+00
-7.074368923660233399e+00,8.145843597220597587e+01,1.853757887159119377e+00
-7.596558586791466894e+00,8.039249848162241108e+01,2.390209594766474765e-01
-6.238180581747266196e+00,8.203841146280632302e+01,3.584243379079637748e+00
-5.114044353178512026e+00,8.237612182117342741e+01,5.235604901021417845e+00
-4.406836491280151868e+00,8.424978542048793884e+01,6.033909361870243515e+00
-7.902211120172827563e+00,8.020809227765387561e+01,-1.323640213810595156e+00
-8.062692486703941341e+00,7.911302454820163632e+01,-2.725343019473584150e+00
-8.059909296954995028e+00,7.884922804099065274e+01,-4.819983685039646915e+00
-7.776122009030448368e+00,7.882716976837329526e+01,-6.690173440792579029e+00
-6.927420826379840690e+00,7.895560364122231078e+01,-8.527275414085710992e+00
-5.479761648104915395e+00,7.836080433962322900e+01,-9.879150271792262572e+00
-4.112096558767444066e+00,7.736575730311571419e+01,-1.041809648161656554e+01
-2.635581934411687755e+00,7.905500590547518414e+01,-1.064052516836381024e+01
1.963511918988749549e+00,9.206436075597247282e+01,8.337369424175300026e+00
4.308506557337674181e+00,9.332553012801463410e+01,7.854335509988587205e+00
1.268182878690616278e+01,1.314168777395304630e+02,4.448264648767192853e+00
1.211374675235646237e+01,1.336847857182914652e+02,4.606924207055712372e+00
1.408942748065415707e+01,1.294573760375778022e+02,3.945809236965484246e+00
1.421640640261776056e+01,1.210265562995005411e+02,3.940338630570877854e+00
1.392920896823442689e+01,1.188257239817558997e+02,4.053395456093191740e+00
1.368257909051020960e+01,1.166301562392872171e+02,4.161779027927806851e+00
1.347972648213423597e+01,1.142903681455858305e+02,4.252519271567059889e+00
1.275146886284391812e+01,1.121145482350943325e+02,4.559416272899611045e+00
1.175506774013227584e+01,1.100195594591038173e+02,4.968107692904645489e+00
1.190369485125744120e+01,1.374801825045037162e+02,4.602514102902880211e+00
1.307052066540110857e+01,1.356084531244914331e+02,4.231571115341118627e+00
1.601262941907012305e+01,1.537444661507220189e+02,-7.424718160704795622e+00
1.547986322963556205e+01,1.555479841808327990e+02,-7.945484555906123347e+00
1.452180916129029242e+01,1.569016792813271763e+02,-8.698474803511640374e+00
1.889317418943359428e+01,1.512472151295904155e+02,-4.401422319363602398e+00
1.730971038556084096e+01,1.535816771804161931e+02,-6.324665979512419156e+00
1.855023268914357715e+01,1.535495682269251745e+02,-5.057741553840406468e+00
2.006034272675199759e+01,1.509890518053336166e+02,-2.387463712920323999e+00
1.795550195150140738e+01,1.378351328774525086e+02,2.139971612704769655e+00
1.709918383303167033e+01,1.356229270463070122e+02,2.626654762645465269e+00
1.878602751617503941e+01,1.400755367520955872e+02,1.521871326288749771e+00
1.947711146150751205e+01,1.424103058226679366e+02,8.453932831123509573e-01
1.621751845807362002e+01,1.334594107946346924e+02,3.047150499918281241e+00
1.987728012662745414e+01,1.447612047471277492e+02,2.390985860582492961e-01
1.507329030900556255e+01,1.314978096862302266e+02,3.532121345425842662e+00
2.008021585895435024e+01,1.473800912263803298e+02,-1.634996487617126348e-01
2.022346966792598977e+01,1.497806817354175450e+02,-4.382214223167082423e-01
-3.239974197507439868e+00,1.646957831425957295e+02,-1.116969843258366524e+01
9.081982733854289336e+00,1.609372229264625389e+02,-1.192851502176339196e+01
7.559276624614030382e+00,1.620215112952706136e+02,-1.259762951697507027e+01
6.123084304077072382e+00,1.610667990635383831e+02,-1.297420544990452740e+01
1.447818591829062029e+01,1.594067486409692265e+02,-8.908300580042679329e+00
1.319155534565754095e+01,1.604490487937347325e+02,-9.793740721682997474e+00
1.186481800691353783e+01,1.613002441028561691e+02,-1.060448058896728263e+01
1.039594344750090471e+01,1.621967713565103111e+02,-1.142444666365202899e+01
-2.723917706775136338e-01,1.656182640571277034e+02,-1.310788443451064111e+01
2.030907968040398970e+00,1.652075758335673754e+02,-1.356304318584219004e+01
-2.158073197929949671e+00,1.662700898258272559e+02,-1.218477309456697455e+01
4.016985788837316385e+00,1.644564782634000153e+02,-1.352535393764664562e+01
5.848489034377306162e+00,1.633088848403018289e+02,-1.317075095302089416e+01
-6.388420799063027289e+00,1.617876281373139307e+02,-4.748257295961472835e+00
-6.358038840968037064e+00,1.641411939295761044e+02,-5.335721702608726247e+00
-5.677647118139315552e+00,1.638298042066464291e+02,-7.427942760491362151e+00
-4.756871893202655244e+00,1.651376291258890490e+02,-9.219104759593633958e+00
-6.460298807695144419e+00,1.621460678337860202e+02,-1.876345724863257125e+00
-6.546835873061258582e+00,1.631511228155141566e+02,-3.402527067591389454e+00
-6.202160205814916338e+00,1.613564124703409846e+02,-3.083957397500145525e-01
-5.760334227895395287e+00,1.616622572138147120e+02,1.210989790891680684e+00
-4.970577182991833709e+00,1.608938381051966644e+02,2.855601385816047610e+00
-3.874250331969543382e+00,1.601699090032863353e+02,4.346681675503138109e+00
-2.392187198554407424e+00,1.594318001907206508e+02,5.592957833130071776e+00
-6.291873122977515997e-01,1.587831939831907562e+02,6.368007695806348067e+00
1.257741265152016119e+00,1.584355141779448957e+02,6.495717582845067284e+00
2.384637053477042024e+00,1.569406553690041051e+02,6.293877343362211718e+00
2.866202571535901189e+00,1.550926751965134258e+02,6.234781190428442699e+00
3.089908944796662116e+00,1.531574185963921764e+02,6.261932456518763956e+00
6.840749209466618908e+00,1.484384887857369222e+02,5.566706921617473824e+00
5.761163196318547897e+00,1.504062898947381939e+02,5.743742722904826792e+00
4.838223903844198759e+00,1.524184716766433212e+02,5.885944425957575277e+00
1.085175979459098627e+01,1.394739729439294535e+02,4.852267976363048518e+00
9.805518562853578146e+00,1.414130699443838921e+02,5.086451399691302555e+00
8.844975189201711885e+00,1.447995496711505723e+02,5.209133532170866943e+00
9.047166332414132484e+00,1.469930065630895513e+02,5.057904973563005058e+00
1.036529718699144098e+01,1.434453931237584641e+02,4.843057693949386788e+00
-8.039607959509953439e-01,7.831021256110369677e+01,-1.069178596618388077e+01
1.094838793924670206e+00,7.684937659127642462e+01,-1.054948608097755702e+01
1.044305905287352232e+01,8.393716313307584187e+01,-7.504987324677101057e+00
1.528889149747008958e+01,9.106789628045459040e+01,-4.213060979941353423e+00
1.437184773489059531e+01,8.893068364659170300e+01,-4.964288210469529616e+00
1.338859061083114099e+01,8.713374719405901203e+01,-5.693726449173674098e+00
1.296318433870036202e+01,8.503001289710678634e+01,-5.934991898067393024e+00
1.184775543460029112e+01,8.331644760566911145e+01,-6.663686285338705773e+00
7.973602841426082222e+00,7.860580663288635606e+01,-8.689929731645927191e+00
9.271326388884407521e+00,8.006296158310168209e+01,-8.110544150461794999e+00
1.059404369517278255e+01,8.161847653637059352e+01,-7.426500378206210229e+00
4.676917926664813763e+00,7.791624873672134299e+01,-9.814930329829234523e+00
6.634172883183108382e+00,7.707209648414666958e+01,-9.219520430018118162e+00
3.097149385447284686e+00,7.621579703201732059e+01,-1.022544975750229135e+01
1.660268446776884588e+01,9.335948684624756311e+01,-1.878171354831188467e+00
1.679876672405239191e+01,9.561486578000167924e+01,-6.572152142527798446e-01
1.655610701415041675e+01,9.768957937717888740e+01,6.507199499760503159e-01
1.582638700389439634e+01,9.968993996277623637e+01,1.954502267785315439e+00
1.475434830248715912e+01,1.016619237793845514e+02,3.095943554516303209e+00
1.551979473543046240e+01,1.101600419146586773e+02,3.006562285926065670e+00
1.507478150817879126e+01,1.080850911315852443e+02,3.205058724657817493e+00
1.435024569570974862e+01,1.058861920384132986e+02,3.584561648928982436e+00
1.356963830305229735e+01,1.036603263968127209e+02,3.975738589811896873e+00
1.607904450400488372e+01,9.102393694617175868e+01,-2.938572488408674133e+00
1.478227083191719871e+01,1.124190501716534527e+02,3.543038477310567202e+00
7.314736260208544394e+00,9.650789029380507600e+01,6.831648701361515919e+00
6.379320288089187052e+00,9.432015449670521434e+01,7.192072037470303769e+00
1.151867704780271850e+01,1.036974111207093756e+02,5.056509835153420340e+00
1.065702463406689304e+01,1.016669897634159838e+02,5.435256566005207901e+00
1.231667606498944423e+01,1.058638597076311783e+02,4.681920123843042347e+00
1.024634777936925545e+01,9.952559953223412492e+01,5.584308281081135306e+00
1.313962538890511311e+01,1.080163745067153229e+02,4.325814128978045403e+00
9.734654495197791135e+00,9.718948711605096946e+01,5.833390106332515757e+00
-2.954527287247366019e+00,8.488536320902473165e+01,7.353479655157940442e+00
-1.255274440537839098e+00,8.559547249129768431e+01,8.287529935902789191e+00
1.922266450950717243e+00,8.899724924859691555e+01,8.391710163267809719e+00
8.134503178057785888e-01,8.658468977496946195e+01,8.500951558820950993e+00
-7.231616984331802556e+00,7.923806954555875848e+01,1.512101666552723600e+00
-6.596021163648225993e+00,7.975090741396478222e+01,3.008138807201710563e+00
-7.885327549839386663e+00,7.827050603619613867e+01,-8.424436177618126464e-01
-7.568857646313997378e+00,7.752648570029055008e+01,6.066655372949014691e-01
-5.588655625339006505e+00,8.025106188596915047e+01,4.640882357036424821e+00
-4.225571345357756137e+00,8.062194309119161062e+01,6.331815177683189688e+00
-3.517701057797744113e+00,8.250465409024836561e+01,6.981539258158917960e+00
-8.094213673711131207e+00,7.678258744667388669e+01,-1.991153259779823159e+00
-8.173769270605756532e+00,7.724442494731505349e+01,-3.618901854347785552e+00
-8.160438847802542028e+00,7.636198746424514638e+01,-5.348632526186803737e+00
-7.713908341887098175e+00,7.679569830626857652e+01,-7.329021513062083493e+00
-6.603127752924869753e+00,7.697199458692445262e+01,-9.075898738784227149e+00
-5.515196710118196677e+00,7.554379771893883344e+01,-9.957744808728488550e+00
-3.971972418505329117e+00,7.493008161123336208e+01,-1.047914121771990992e+01
-2.523217493776511056e+00,7.677020486580811109e+01,-1.065897540448550451e+01
3.585316595548432517e+00,9.089899547038235994e+01,8.048683051915801911e+00
5.997989455846949980e+00,9.146763404537728093e+01,7.351754571812620043e+00
1.420622793762133718e+01,1.334909369628694549e+02,3.860174665386335136e+00
1.382903085348669237e+01,1.101956744870029468e+02,4.027905756239782420e+00
1.311456929691137141e+01,1.395954701452580196e+02,4.124296950528659522e+00
1.420958387556303038e+01,1.376093285861159643e+02,3.791962993828629891e+00
1.526549664200188516e+01,1.355517445069044129e+02,3.441271880346121748e+00
1.710006367482713330e+01,1.557494617426532670e+02,-6.698121364790345922e+00
1.658968517605399740e+01,1.573425541229625253e+02,-7.243113313779998563e+00
1.563911146091710691e+01,1.583560017469594356e+02,-8.044015263913950164e+00
1.967218469519258406e+01,1.533730834720797986e+02,-3.489039780478748298e+00
1.831924777398656090e+01,1.559170564111017825e+02,-5.539504444948015305e+00
1.948726941152925463e+01,1.557366668161911036e+02,-4.057012976671195759e+00
2.026305151732192655e+01,1.520071658881210510e+02,-4.383008936950183454e-01
2.034847769177002519e+01,1.532013135168398890e+02,-1.785919077584573245e+00
1.714645492937686200e+01,1.398725916553552793e+02,2.546895696623035832e+00
1.622470316770144194e+01,1.376820829988105288e+02,3.014512972219584697e+00
1.802732116402917484e+01,1.420219504868708498e+02,2.037745992734066647e+00
1.864561384513996956e+01,1.441273803584443840e+02,1.596041341926394352e+00
1.920927709368293890e+01,1.461729242261033050e+02,1.118990433441961585e+00
1.929640973606658605e+01,1.483201582881615934e+02,1.002596418454206884e+00
1.940158540720033642e+01,1.506129151927955263e+02,8.399112191146897999e-01
-3.759592448769467410e+00,1.669346838141653393e+02,-1.064370333928672707e+01
8.959478172811705221e+00,1.633091004972456517e+02,-1.214285604299248966e+01
7.392954608256749438e+00,1.643081515914436750e+02,-1.279851970657423799e+01
1.580043763259339329e+01,1.606714451422199943e+02,-8.086473906880243590e+00
1.455499935710771808e+01,1.617186967835946234e+02,-9.007391551686527720e+00
1.334583945212359524e+01,1.628365188642607393e+02,-9.853300583108790534e+00
1.166548460084207761e+01,1.634813934658687629e+02,-1.086574290487282113e+01
1.030149910168588967e+01,1.645769581176437839e+02,-1.162152918449938355e+01
1.184186383879635152e+00,1.673734290452636344e+02,-1.352602886447209585e+01
-9.494444163691140304e-01,1.679754282277600339e+02,-1.291594386201563083e+01
3.572386175586791168e+00,1.669729102710837196e+02,-1.366567249335871992e+01
-2.726963117863842712e+00,1.686796892348301071e+02,-1.180503639600149057e+01
5.584337880576175195e+00,1.655426780265768514e+02,-1.334057983286353810e+01
-5.892484788413497654e+00,1.659160351860326443e+02,-7.098941923507020135e+00
-6.482395315252320600e+00,1.666230052849739138e+02,-5.135103310294162782e+00
-6.614199321954924216e+00,1.654558335985011865e+02,-3.540339704751879424e+00
-5.069371968278581164e+00,1.674706687115510704e+02,-8.842453557612046211e+00
-6.527653677741160010e+00,1.644850130971315423e+02,-1.900006113836076871e+00
-6.249351118079884415e+00,1.634204262866378770e+02,-4.032873514757269184e-01
-5.110822148882319560e+00,1.632347104495908354e+02,2.511943990394488679e+00
-5.822044963490598413e+00,1.641972598354622335e+02,1.022267646577176947e+00
-4.116521837426811103e+00,1.624810625441440664e+02,3.986869480674940291e+00
-2.749407551277307071e+00,1.617779355357725990e+02,5.312898741759397581e+00
-9.979799377980285158e-01,1.611166745640105091e+02,6.270080178218307765e+00
1.058470981686296053e+00,1.605012338671045882e+02,6.512933289964479400e+00
3.221990777366704251e+00,1.590823615520921805e+02,6.091466516227526995e+00
4.261075375544240984e+00,1.567703719466240670e+02,5.868927419816024837e+00
5.028241347898054769e+00,1.545236203034488085e+02,5.751463147908332019e+00
7.902155307047182831e+00,1.505537017608892256e+02,5.189228211346900821e+00
9.273583033423644650e+00,1.489349273908312057e+02,4.912126573561124587e+00
6.633358228529090184e+00,1.524836935288917346e+02,5.420936933206995434e+00
1.190010523065351755e+01,1.415468719799600876e+02,4.455133578351798462e+00
1.110617532297923304e+01,1.457227132899656965e+02,4.545422573027035895e+00
1.140377126286406728e+01,1.479484279549185430e+02,4.374803621240086926e+00
1.260314029481641640e+01,1.437036549086882360e+02,4.165126866717113074e+00
-7.596137685495687464e-01,7.615224592761569511e+01,-1.071018760799411851e+01
-2.815503797205272107e-01,7.414397572070461706e+01,-1.070926624419223216e+01
1.652628301030818925e+00,7.426234040524086311e+01,-1.052150862714844237e+01
1.533759870857046437e+01,8.868195520801991449e+01,-3.817783990962546170e+00
1.448096849330408808e+01,8.640615323261506830e+01,-4.663905306931820149e+00
1.397559687105531623e+01,8.409809732327694576e+01,-5.012888283264459233e+00
1.303939034516930562e+01,8.248173210264518218e+01,-5.795208926450207798e+00
1.187556119875588578e+01,8.080194409288188240e+01,-6.618683749023865914e+00
9.584522633706431094e+00,7.762657105895132759e+01,-7.972294210327463659e+00
8.446916353978853209e+00,7.589574998113914717e+01,-8.544907674780301221e+00
1.083276560862363880e+01,7.921898545464071617e+01,-7.294911075716830950e+00
5.112695202303800812e+00,7.551962323331052573e+01,-9.735221636187429084e+00
7.082437113616819602e+00,7.465413236114980577e+01,-9.105280201721862809e+00
3.640886176791866546e+00,7.375094914424747117e+01,-1.014898998979513500e+01
1.635466438270514189e+01,9.114216065143864398e+01,-1.312873577020575055e+00
1.639102765731587752e+01,9.330973227693553440e+01,-1.500728945342117981e-01
1.605353833108695838e+01,9.543790129589709181e+01,1.081224681450052572e+00
1.533627730057042271e+01,9.745990992041052436e+01,2.249721292831750930e+00
1.420237862724547284e+01,9.947655095977356154e+01,3.363239765257759473e+00
1.277902594689350479e+01,1.013527110945267680e+02,4.359996008352148067e+00
1.598007805789609215e+01,8.883213740270063852e+01,-2.346856984211193264e+00
8.816904266649945754e+00,9.488227144099670340e+01,6.240794273598652353e+00
7.836923894794328049e+00,9.275411598477479913e+01,6.649944899688129851e+00
1.222968897507920971e+01,9.909196172597953023e+01,4.610585982978903985e+00
1.182318225075068696e+01,9.696032858120358355e+01,4.785762365241467364e+00
1.094607101575409303e+01,9.499215944191931271e+01,5.231698285973450879e+00
-1.906467920007161254e+00,8.308442527635179431e+01,8.060246038152811821e+00
6.494790309912978898e-02,8.391668715890816088e+01,8.530903461457832293e+00
4.776546005460186706e+00,8.914519155130221861e+01,7.761453076494625236e+00
3.359517936018074913e+00,8.714081673192829669e+01,8.159307843442647368e+00
2.159684817918228639e+00,8.494160733714538480e+01,8.415700939980538919e+00
-6.964328475872736846e+00,7.729957126513708943e+01,2.287353975407846463e+00
-6.107126677859289643e+00,7.796494690886216006e+01,3.905791012376027993e+00
-7.853108307036393398e+00,7.585478229529829264e+01,-3.823531716161028271e-01
-7.350105270239719601e+00,7.519392411033713586e+01,1.397181897997800348e+00
-4.993069320864653271e+00,7.857847447922648598e+01,5.478758531514678509e+00
-3.505941348211848663e+00,7.876230846121194418e+01,7.062094579613983569e+00
-2.365989974361381698e+00,8.055811105225464530e+01,7.859162462654495585e+00
-8.263085518816627228e+00,7.514552542927411594e+01,-3.454735462512354083e+00
-8.145096836571987353e+00,7.449882072841111835e+01,-1.741002251604319540e+00
-8.347842439324040242e+00,7.366435699199547571e+01,-4.897161186312802172e+00
-8.056778969576438243e+00,7.444623994076704321e+01,-6.696166798843474766e+00
-7.238620524311485838e+00,7.503918086089072403e+01,-8.484665488689088875e+00
-6.464837436259166736e+00,7.337266599063268302e+01,-9.455330620180006918e+00
-5.127654622243847271e+00,7.296320116163154523e+01,-1.018621202575864437e+01
-3.567182653428356609e+00,7.245924800477362737e+01,-1.058613210728369403e+01
-2.269920858563472255e+00,7.438506688350624074e+01,-1.069672488634476970e+01
7.231624109496165076e+00,8.932814995648499234e+01,6.889384928924449980e+00
8.816155871510886755e+00,9.091131824751329304e+01,6.240855256840596610e+00
1.404547124793684532e+01,1.417557514807043049e+02,3.742959941842421756e+00
1.525051503417214249e+01,1.397773177767717527e+02,3.355362487131685612e+00
1.802528905226920131e+01,1.582416293263219416e+02,-6.019695151666883959e+00
1.698955988287357144e+01,1.595307639123548142e+02,-7.061604867530213880e+00
2.034364053885797929e+01,1.554594151233645221e+02,-2.244309483340174438e+00
1.926470805672472864e+01,1.579579843794031717e+02,-4.581014995790049227e+00
2.029083860361113167e+01,1.575935661551889666e+02,-2.745523113509257485e+00
1.949128341352580662e+01,1.530355969293486851e+02,6.839475172248690171e-01
2.033683765296813206e+01,1.544826648883173164e+02,-5.836761172036943890e-01
1.616660766659799009e+01,1.419771362755829216e+02,2.937581236334267487e+00
1.700611068691430106e+01,1.442429975001419677e+02,2.503963123328791340e+00
1.771903106159226127e+01,1.465564422000779814e+02,2.101480316252771985e+00
1.794625807185056132e+01,1.491014107484181750e+02,1.913866181552691614e+00
1.812532937665815780e+01,1.516217240434840221e+02,1.731089452740285139e+00
-4.165916533916044884e+00,1.692751574731690880e+02,-1.025690554371761465e+01
8.865436333754795228e+00,1.657216431985436884e+02,-1.234460749165604909e+01
7.243546186311892399e+00,1.664833603904829147e+02,-1.297520427829326017e+01
1.707671728605216543e+01,1.617810980479458181e+02,-7.160629683435761450e+00
1.590526678454290987e+01,1.629230057053422627e+02,-8.153040647924530759e+00
1.481876741274332687e+01,1.640591419109438789e+02,-8.999945239521537133e+00
1.408974886151806416e+01,1.656035181774122691e+02,-9.579691910933792798e+00
1.286635576426757765e+01,1.646879434384215131e+02,-1.026521424190106657e+01
1.165864118982650410e+01,1.658062072186554019e+02,-1.101921291889963150e+01
1.032045773366004404e+01,1.669339351651036054e+02,-1.178004474295685711e+01
1.581365662228249036e-01,1.696801222717825794e+02,-1.338902985714764782e+01
2.311210204006228786e+00,1.692129089503059163e+02,-1.373489387523967409e+01
-1.730720893822375928e+00,1.704916576831026589e+02,-1.264846899729263541e+01
4.165615414029219643e+00,1.695878058661804459e+02,-1.373646673453390754e+01
5.462870333181875537e+00,1.677693245132779509e+02,-1.348775969959495136e+01
-3.327196845611286591e+00,1.710759813639882907e+02,-1.137143994729500207e+01
-6.062180696819519099e+00,1.681776443368495961e+02,-6.801979964246189780e+00
-6.700661662921638673e+00,1.678443316521590987e+02,-3.431223547056497125e+00
-6.594645484249721967e+00,1.690907664612582835e+02,-4.967316560493090449e+00
-6.587690241720510542e+00,1.668023375762003297e+02,-1.935535613214381279e+00
-5.355373516827583558e+00,1.698714154762756436e+02,-8.426426071864170808e+00
-6.307298944094512194e+00,1.656779604267991033e+02,-4.584513297201227022e-01
-5.199338763010795006e+00,1.656525988443684980e+02,2.290595061932275911e+00
-4.215974164257287882e+00,1.647929611120118523e+02,3.756196211778856764e+00
-5.886240370066947669e+00,1.667225436251678730e+02,8.583288704106779576e-01
-2.924237684106667512e+00,1.641412228454227886e+02,5.068422282863128459e+00
-1.323110586503500441e+00,1.633914564537597585e+02,6.094300682154088378e+00
6.424847700000304584e-01,1.626928901417369673e+02,6.515781241171310967e+00
2.663192709876803121e+00,1.614720741739436107e+02,6.195409480535396085e+00
5.349323386611464670e+00,1.585491064659955782e+02,5.511818234655144977e+00
4.589035851023592016e+00,1.606623303553900541e+02,5.660431434309444398e+00
6.297112108197154612e+00,1.564344745589521608e+02,5.351737596183561152e+00
7.284614807566991423e+00,1.544769039175958767e+02,5.171131598142459040e+00
8.727551540495282367e+00,1.525436653020340998e+02,4.905552990802185320e+00
1.043876634877690535e+01,1.507147261144446020e+02,4.531589183078725824e+00
1.334837902140731636e+01,1.456764463185504326e+02,3.844237450561447389e+00
1.371789769660736269e+01,1.476544800912008384e+02,3.682566527318776650e+00
1.249682124176189291e+01,1.499323307662922957e+02,4.000414372982874056e+00
1.489317658487038365e+01,1.438547824705349854e+02,3.371295215730160777e+00
3.100989934609597043e-01,7.196519061475902390e+01,-1.070250162462908072e+01
-1.768025409944634418e+00,7.213053235648047234e+01,-1.076043312963758325e+01
2.309098782378780967e+00,7.179790627571644279e+01,-1.044361925813067771e+01
1.541113029386895050e+01,8.646967253052970648e+01,-3.285872825090532245e+00
1.485827964804655643e+01,8.403774312121487355e+01,-3.887113923787218539e+00
1.415031333364585819e+01,8.165582730597242289e+01,-4.625005519740309268e+00
1.304749431107336122e+01,8.030932743712058652e+01,-5.692983452048615334e+00
1.221920476883796169e+01,7.827750655643369271e+01,-6.333825259588913070e+00
1.108757910314405848e+01,7.699704199887588629e+01,-7.116341059448698658e+00
1.011880487765431980e+01,7.522757232804819694e+01,-7.730996170702530534e+00
9.055480188938695107e+00,7.333131473229249764e+01,-8.317227680626842812e+00
5.642634837799604952e+00,7.310044110016842467e+01,-9.626960555821165499e+00
7.592114178686458104e+00,7.242427888751342380e+01,-8.972473521528623763e+00
4.380981035845394445e+00,7.133735936405054190e+01,-1.002334229613281025e+01
1.596889620384342656e+01,8.895158341804616953e+01,-5.577545640933507798e-01
1.584886252453733668e+01,9.109093540643726783e+01,5.135999756993356868e-01
1.546338582111818027e+01,9.318886797334099015e+01,1.600578043490543223e+00
1.472740470257829415e+01,9.520841813672497267e+01,2.660289698588854890e+00
1.372205005941162526e+01,9.725134358066770801e+01,3.620290856193868478e+00
1.582323106234133014e+01,8.674412150052719994e+01,-1.553920644949862151e+00
1.008352333689858504e+01,9.288004809068806367e+01,5.649164776452053616e+00
1.303730340201864024e+01,9.502139001456072265e+01,4.008886713972160010e+00
1.213965097720210551e+01,9.297610140571865145e+01,4.503498903927052766e+00
-3.784844812410668169e-01,8.160532026343290113e+01,8.535126685377804279e+00
2.239996906899752283e+00,8.271438574516123765e+01,8.429994126533834731e+00
5.909351944437401194e+00,8.709684648399246498e+01,7.406085446813904127e+00
4.414245432626237253e+00,8.490064662389977457e+01,7.886527143433738729e+00
-6.512169114128740333e+00,7.567989848231381700e+01,3.257909669671384734e+00
-5.506360605276015896e+00,7.630909191209875075e+01,4.863325411185456915e+00
-7.815269190371466834e+00,7.368583671687565584e+01,-2.416858336601634960e-02
-6.751897424055466779e+00,7.368491411462510143e+01,2.832368363606757811e+00
-7.356476982065145442e+00,7.264166967324311486e+01,1.468663694340378356e+00
-4.361995650138593028e+00,7.688761992513420296e+01,6.251525757094555047e+00
-2.120947442648736470e+00,7.780220032832555432e+01,8.039610346353839532e+00
-3.248814695496492710e+00,7.605002211177577465e+01,7.304088075942196667e+00
-5.931984204134410632e-01,7.912823553744212290e+01,8.493500427529561136e+00
-8.341950003444836170e+00,7.280020943671658529e+01,-3.123481271779099622e+00
-8.151839574835557656e+00,7.229538038385425125e+01,-1.362512340151454282e+00
-8.471411068478939654e+00,7.107306086755049535e+01,-4.661374226753279615e+00
-8.289670453838162700e+00,7.190086348356950907e+01,-6.296341830823267927e+00
-7.654035242175936560e+00,7.273685326372850568e+01,-8.079901082102939114e+00
-6.613998134590389100e+00,7.091667032824643968e+01,-9.432916378273294100e+00
-4.964074746934203475e+00,7.050039893607711861e+01,-1.029861598265219591e+01
-3.182831645575555868e+00,7.014573041154123700e+01,-1.067618433222665431e+01
9.774526867110939321e+00,8.897189982508318451e+01,5.747690634996352799e+00
8.336089593350809679e+00,8.716074686564562057e+01,6.413408220157471362e+00
1.111204611816170917e+01,9.089976377443217359e+01,5.061686842550997767e+00
1.922893765808799316e+01,1.601704989248697188e+02,-4.806774610358313993e+00
1.818973419857314866e+01,1.607564571016478681e+02,-6.043646994136031125e+00
2.044781987278285484e+01,1.567504908630977241e+02,-8.867411550325776659e-01
2.021321410196097190e+01,1.597193427981693787e+02,-3.165110584890147294e+00
2.055446390727479766e+01,1.589530263871136810e+02,-1.345945139817082747e+00
1.957423569032246036e+01,1.555450890406035569e+02,5.447320511284665656e-01
1.828760082596500425e+01,1.541022871401863767e+02,1.557584697325346212e+00
1.561691551561362168e+01,1.459954275423863521e+02,3.035548493703398520e+00
1.612022787486124997e+01,1.480594485329490340e+02,2.785657306388465315e+00
1.649075570019250847e+01,1.503955502135312940e+02,2.585868365442792083e+00
1.647914208187955509e+01,1.527544854841234212e+02,2.533148916785329163e+00
-4.654789146728969484e+00,1.716988783107538268e+02,-9.718443192032125921e+00
8.887135462006735764e+00,1.682044579434966067e+02,-1.247512426470644442e+01
7.196722578995148112e+00,1.685272827364402417e+02,-1.309661752505749277e+01
1.832444538957642521e+01,1.630769488948565140e+02,-6.059789862916405312e+00
1.718541790672452407e+01,1.639734846630976790e+02,-7.188125180847910300e+00
1.621444049172689006e+01,1.652180789392470501e+02,-8.090792345769646232e+00
1.539148457213818233e+01,1.666216640818221890e+02,-8.778626242732705975e+00
1.445951218930748894e+01,1.679478028700629295e+02,-9.501170588189923549e+00
1.304914083823958393e+01,1.669239343363572630e+02,-1.030891093936955194e+01
1.184078010721811580e+01,1.680220578269274654e+02,-1.106700207274146663e+01
1.054456189548283973e+01,1.692106298950564565e+02,-1.181255302381613959e+01
1.136854890290480036e+00,1.713827229142762008e+02,-1.368027984361322247e+01
-6.324654390640249702e-01,1.723045270197285674e+02,-1.326505970691001224e+01
2.911737417639200132e+00,1.717362656115324739e+02,-1.385432052364628497e+01
-2.446228097224564912e+00,1.729551930711351702e+02,-1.230727602119470632e+01
5.958352902545981600e+00,1.701624615470807953e+02,-1.348300469545038638e+01
4.732010521170112227e+00,1.720746127884024759e+02,-1.377176084393456890e+01
-3.894332499641341983e+00,1.735019529724159497e+02,-1.090104350127402100e+01
-6.229615244418170050e+00,1.705385566121525756e+02,-6.542956440761376058e+00
-6.786912222910567394e+00,1.703415493549054247e+02,-3.338229901302820934e+00
-6.649867257960350386e+00,1.692123568883233702e+02,-1.916191031205822348e+00
-6.708196499288976433e+00,1.715903054300381143e+02,-4.815581026748962046e+00
-6.333287868843424206e+00,1.680433053827757135e+02,-5.072517173678634528e-01
-5.732790709389585793e+00,1.723850088444062862e+02,-7.934321596974342583e+00
-4.271273009975863566e+00,1.670544938834085258e+02,3.545752583372049571e+00
-5.256784847228433755e+00,1.680589738636125787e+02,2.097735363309171319e+00
-3.072251438883069063e+00,1.664909155339348388e+02,4.879309320137025452e+00
-5.855568510818558892e+00,1.693172049042701133e+02,8.434314730293976936e-01
-1.599040382683765360e+00,1.657577507289745142e+02,5.955464269480529538e+00
2.513699875539758821e-01,1.650087335495774710e+02,6.503605037085179674e+00
2.228353367083511838e+00,1.640017708293843270e+02,6.256596389556818849e+00
3.968090410256318368e+00,1.628847031353318187e+02,5.784754559901479354e+00
6.677860365296493406e+00,1.603494898759282421e+02,5.126005414856855680e+00
7.588891380992959235e+00,1.583699206293428858e+02,4.965526290485357208e+00
5.935350128958703841e+00,1.623566925037393958e+02,5.242948028516757120e+00
8.620025650394325112e+00,1.564723086666917879e+02,4.793258547002373859e+00
9.675154196602841594e+00,1.546533696546700867e+02,4.592295859212740083e+00
1.083725163726859186e+01,1.528231345636121432e+02,4.348563894649572603e+00
1.277151606799287542e+01,1.522113877803252819e+02,3.858578857758256930e+00
1.460053723308643292e+01,1.495451161576735046e+02,3.340470361336578264e+00
1.465781519788707499e+01,1.516578126038533014e+02,3.268982525047317012e+00
-1.138964173529436241e+00,6.989463941865083996e+01,-1.080169486098381348e+01
9.317590157551212116e-01,6.971896612811347893e+01,-1.067968618568024475e+01
3.083403891308861944e+00,6.939221942432233448e+01,-1.037569704093066392e+01
1.549192871003829097e+01,8.446744725116900554e+01,-2.376198618286647246e+00
1.502741939453514242e+01,8.200371484344734085e+01,-3.133718761997496216e+00
1.362013226781477826e+01,7.886341876478201129e+01,-5.062019626600928746e+00
1.453009168679474961e+01,7.961847855441911292e+01,-3.790766647517571641e+00
1.295417511066282401e+01,7.664694960716798278e+01,-5.667584159805036492e+00
1.171373227377554826e+01,7.516737657699604824e+01,-6.708676800109244276e+00
1.073603308571097514e+01,7.304248406747436206e+01,-7.382108957136105154e+00
9.840116268422455903e+00,7.109650161901511467e+01,-7.964252605206023183e+00
8.424811375195261576e+00,7.026071957729720907e+01,-8.688358218406502687e+00
6.487720866084094595e+00,7.073780625825506263e+01,-9.424662488716581521e+00
5.225372582121440956e+00,6.884311845999222612e+01,-9.896936727756125762e+00
1.541871238985260995e+01,8.681517684576411398e+01,3.474252081537372305e-01
1.515696696589798620e+01,8.889819238744895813e+01,1.319428847310554431e+00
1.467877763082313436e+01,9.094581621541155414e+01,2.269659030005009015e+00
1.397876132896091050e+01,9.296501204460298595e+01,3.166408796678254589e+00
1.547797911889678346e+01,8.463630574169610554e+01,-5.485762021202305050e-01
1.305845128610112837e+01,9.084870901712068303e+01,3.774130217073484062e+00
1.473719069810329962e+00,8.025651922617412026e+01,8.544063185554485074e+00
3.857511901182571812e+00,8.127486822721895976e+01,8.088651243900521592e+00
5.438553593080491133e+00,8.301323153662255550e+01,7.585810970110308915e+00
6.971395617769461595e+00,8.499811123579661398e+01,6.998903904976074841e+00
-5.730264996793355436e+00,7.420500145247255830e+01,4.566601842807251899e+00
-4.549732012776601664e+00,7.461323380632400415e+01,6.020012046867705635e+00
-7.773108796606264193e+00,7.130643510883879799e+01,2.472892201917638033e-01
-6.714122753739579785e+00,7.129921598797507443e+01,2.969759083948659395e+00
-5.957095548174962119e+00,7.231126707402226828e+01,4.246619070983619793e+00
-7.273079923480981535e+00,7.004932481079436002e+01,1.735619143814236764e+00
-4.694971764049578056e-01,7.647104524639323131e+01,8.566064045582066910e+00
-1.983374472639925834e+00,7.500663528861286977e+01,8.132847832014448386e+00
-3.428054008986960444e+00,7.354327424693026671e+01,7.163364048992562516e+00
1.462757348471761532e+00,7.777865262253061474e+01,8.547255942924955718e+00
-8.411559975460484395e+00,7.058004709810666100e+01,-2.756257483114745721e+00
-8.148522953554948600e+00,7.011877570142227967e+01,-1.042097943691457473e+00
-8.595670721736883735e+00,6.876561802428324199e+01,-4.264947288755174704e+00
-8.456221799288440977e+00,6.910258104653280498e+01,-6.325225913867202010e+00
-7.892121515281706579e+00,7.055595197201031965e+01,-7.847903837131404714e+00
-7.622386984738207971e+00,6.856446934175461649e+01,-8.518900457229397816e+00
-6.134277299523725802e+00,6.849272211758365358e+01,-9.846986186255801243e+00
-4.389575952771100908e+00,6.811903871757608897e+01,-1.050485616396198552e+01
-2.517943824745790593e+00,6.786107490718092095e+01,-1.080290828961406469e+01
1.191270005060558823e+01,8.880398892705218827e+01,4.487237036819074376e+00
1.062860836552655641e+01,8.686570973296574039e+01,5.216243588033535161e+00
9.266296297729207154e+00,8.488824005023337804e+01,5.928869373486037375e+00
2.020361907563040660e+01,1.619893152386467818e+02,-3.373506164087984871e+00
1.929098940727718769e+01,1.625208213446117611e+02,-4.911595436040983031e+00
1.978935336673778522e+01,1.577872354412736797e+02,2.511384501318083551e-01
2.061169407629961015e+01,1.611836047068441360e+02,-1.748363581385973475e+00
2.011945857225945744e+01,1.600396488499696943e+02,-2.133748092203617830e-01
1.817223035082862381e+01,1.566782104972859031e+02,1.535589337936201559e+00
1.672604657169598497e+01,1.549287902734238571e+02,2.349802440625609279e+00
1.459079101442841697e+01,1.541148950738877943e+02,3.239997300246038492e+00
-5.231020499570779414e+00,1.742218671330339532e+02,-9.028963577800659834e+00
7.839736788784254173e+00,1.705050061268360366e+02,-1.299658323496609391e+01
9.401915337328915712e+00,1.707259033698157396e+02,-1.241064526135776447e+01
1.952158424197954645e+01,1.650730633485933652e+02,-4.825334942609769584e+00
1.838194988939307706e+01,1.650384429199666272e+02,-6.178377376926695419e+00
1.756086749388094148e+01,1.662919587966299275e+02,-7.030607334743399051e+00
1.670245093216490773e+01,1.676072833206688131e+02,-7.863900161839594283e+00
1.577447556670924911e+01,1.689784300697213268e+02,-8.657294870643214679e+00
1.473957025523311160e+01,1.702081192310128586e+02,-9.477832677587390009e+00
1.334731100266840542e+01,1.691578099624827587e+02,-1.027959304257960937e+01
1.214366106511997856e+01,1.702072208155600492e+02,-1.105816111895713405e+01
1.100437545118952976e+01,1.715111353412814879e+02,-1.173722090122004502e+01
1.059941591376103887e+00,1.738057671614957940e+02,-1.376439306938704732e+01
-1.270715952693163064e+00,1.745421428323416819e+02,-1.309052965914109379e+01
3.159646226577482508e+00,1.740936070811223431e+02,-1.394914384691684361e+01
-2.963946727360602829e+00,1.754876656186583261e+02,-1.201870758376491466e+01
6.642790542768902462e+00,1.723320573681725136e+02,-1.344038482546902458e+01
5.376211684556830406e+00,1.742158948368810059e+02,-1.377467425840540827e+01
-4.356291263296897753e+00,1.757841802123385833e+02,-1.050266851211464925e+01
-6.437779799278962933e+00,1.728963697548169307e+02,-6.222230528717293652e+00
-6.867219643035959997e+00,1.729763033561878842e+02,-3.480168863923465139e+00
-6.728810294778512002e+00,1.716617260792971251e+02,-2.026726836572092072e+00
-6.384026632759589148e+00,1.704239631673147244e+02,-5.373970454652008399e-01
-6.802252724902020375e+00,1.743770825256262640e+02,-4.950973814751289837e+00
