-3.557537428537855817e+00,2.327768792925700723e+02,-6.318509959102721396e+00
-4.417706381107237235e+00,2.310828544254164854e+02,-1.602237379119927141e+00
-4.289557208057878768e+00,2.306096207727139529e+02,8.425801951795364175e-02
-3.722780720807005395e+00,2.299998834373760133e+02,1.592334612851999509e+00
-4.321678493677417521e+00,2.321869660513552844e+02,-3.215948160741151085e+00
-4.079626860851874426e+00,2.336383981916332004e+02,-4.702160263556844910e+00
-5.591067064031989275e-01,2.333174574540246908e+02,-1.156490225726873966e+01
-1.426232589056589006e+00,2.326832570047179161e+02,-1.045639566031898937e+01
3.945200737634735333e-01,2.342345449133192119e+02,-1.254865971178447559e+01
8.609882852088340144e+00,2.230367432387535587e+02,7.993560787466776674e+00
1.275131914994381432e+01,2.220322376282461505e+02,6.192836492304296669e+00
1.086495128096901652e+01,2.238731624112407985e+02,7.149038158302863266e+00
6.907964778717460064e+00,2.245275779706600190e+02,8.205918177556387860e+00
1.165015148802934419e+01,1.404728078838407690e+01,-1.630610887453910962e+01
1.278255787033759816e+01,1.388610911866034314e+01,-1.534245827282552455e+01
1.079457218946317099e+01,2.335591836084471140e+01,5.842862380840120551e+00
9.021893997254579745e+00,2.274960115372748959e+01,7.542615979437311324e+00
1.229092318505058756e+01,2.097093615029279690e+01,4.041215442532177349e+00
1.083423436939166606e+01,2.150127527951628892e+01,5.880779064955412139e+00
1.339084412449114936e+01,1.987944773001652266e+01,2.153553113518054118e+00
1.418846005339476690e+01,1.835200761521396728e+01,2.523343111036311370e-01
1.464046633958489174e+01,1.646500979447446866e+01,-1.120612704789571978e+00
1.521392992068731864e+01,1.504619089203740145e+01,-5.349659216499020431e+00
1.501743824856007059e+01,1.436962898872810612e+01,-2.575441577455862330e+00
1.426615475919562925e+01,1.461934844191365990e+01,-1.216592678224611745e+01
1.501240577925880615e+01,1.344454129821136235e+01,-9.843554518314427071e+00
1.536225163972697771e+01,1.309357348290382816e+01,-7.292886257251190329e+00
1.380160372416199266e+01,1.322664898760721819e+01,-1.396323358874401066e+01
-7.310784359225497298e+00,1.611321687818429993e+01,5.920045664693184051e+00
-8.257234750144709423e+00,1.579451671706840088e+01,4.007810485755300078e+00
-9.020140048043401748e+00,1.542708645065971140e+01,2.116154678755357565e+00
-9.716253913707872059e+00,1.521015228609656589e+01,1.148842908574110311e-01
-1.024517472629771930e+01,1.492866888958005589e+01,-1.801773935219671330e+00
-6.118288821368214059e+00,1.598287473887387833e+01,7.899169131486722506e+00
7.052235494699079510e+00,2.218704856019788707e+01,8.870074913841992981e+00
2.668230305057107898e+00,1.924443172478067154e+01,1.038142328921760082e+01
4.764587925641723842e+00,2.043187846599034430e+01,9.930082277743224495e+00
4.732665544659369061e-01,1.888103078640784815e+01,1.025225967970065710e+01
7.003317669641504040e+00,1.990947488689386446e+01,9.011976285496839267e+00
-1.429567576617696290e+00,1.739721443534745404e+01,1.003649293402424547e+01
-3.665333801343638953e+00,1.651264297436076234e+01,9.501817079594975013e+00
-4.909278801293609718e+00,1.502814299530955466e+01,9.237101504493907100e+00
-1.097095640460302413e+01,1.349697287968749038e+01,-4.720777996567335322e+00
-1.096361029982574564e+01,1.403628248843900295e+01,-6.723211939301869222e+00
-1.075667761174972625e+01,1.290362213241333578e+01,-2.618836213449284855e+00
-1.071783781390167434e+01,1.476008677068511687e+01,-8.437888708363580292e+00
-1.086993630819884160e+01,1.292717155962323972e+01,-9.460479911829381194e+00
-1.097284950732260000e+01,1.113296371871430424e+01,-1.048074086725546294e+01
-1.028360148895870907e+01,1.186599214858782148e+01,-1.180998216089073338e+01
-9.438753208216134283e+00,1.269028943157337963e+01,-1.297812243316506198e+01
-8.454706816474349296e+00,1.355642876273892483e+01,-1.399243735800398269e+01
-7.471780156411902851e+00,1.416191575596372587e+01,-1.482214632876203808e+01
-6.532965499613119675e+00,1.417081276515908428e+01,-1.552662844708374301e+01
-5.610019811301107495e+00,1.392250764712815148e+01,-1.616011413864173107e+01
-3.594662275395375417e+00,1.522199636834671388e+01,-1.672325080949856257e+01
-4.535153085286081520e+00,1.352084739023970350e+01,-1.678997583925306358e+01
5.409743429074502785e-01,1.498289026458404471e+01,-1.767239649873090102e+01
2.150494232202845524e+00,1.533233752594505539e+01,-1.768419663296445066e+01
-9.623139806336729052e-01,1.492085529986994707e+01,-1.748834061920601712e+01
-2.297519559123105015e+00,1.500910999290157477e+01,-1.717345337462740673e+01
3.984157398403059602e+00,1.541465075018583342e+01,-1.764367955024058787e+01
5.763625667176803802e+00,1.540467715785469238e+01,-1.755296861789718221e+01
7.345143216691688792e+00,1.516407586401350827e+01,-1.745441555217342255e+01
8.833124677150280490e+00,1.467752065722166144e+01,-1.730786333850996073e+01
1.024868866737794804e+01,1.425110122943703672e+01,-1.698860049735715094e+01
2.539747900016321580e+01,2.244649575500209266e+02,-7.355007983434320273e+00
2.439128278344073664e+01,2.263017947663497011e+02,-8.129337052652644502e+00
1.717758964461147286e+01,2.238838911420621685e+02,4.354729011650674053e+00
2.210084522099312920e+01,2.245356011022124676e+02,2.764816814147103230e+00
2.440801633863488007e+01,2.249618210497197879e+02,1.537462532304363805e+00
2.624630265324443457e+01,2.255597980679557679e+02,-3.842409771352182091e-01
2.728693835265034195e+01,2.252908867462019771e+02,-4.469970845072380961e+00
2.730841215138752887e+01,2.267674784877764864e+02,-2.806071973496742977e+00
2.626223459396121385e+01,2.262191564869940521e+02,-6.545242559003183302e+00
1.967249780559120254e+01,2.254935878424847715e+02,3.660806487129994125e+00
1.465952149575670660e+01,2.233586309898013269e+02,5.222394018037217478e+00
1.556774709025871850e+01,2.293315126963987609e+02,-1.271567635381873274e+01
1.238253494083685169e+01,2.305891666988217708e+02,-1.408467828682518430e+01
1.429498144580812280e+01,2.310035722058940735e+02,-1.330155501190965595e+01
1.020825683982217313e+01,2.326852029991530344e+02,-1.478010516764193483e+01
1.165106663488176508e+01,2.326739887580723121e+02,-1.434220850875313147e+01
7.624750991007871903e+00,2.334919386356331188e+02,-1.514654404233937512e+01
9.087263999987818863e+00,2.343240960760400640e+02,-1.498957372534118626e+01
6.717521554588678612e+00,2.352883117374406368e+02,-1.513839234721332616e+01
5.298349266144391834e+00,2.352415872872026057e+02,-1.498436904577467388e+01
4.201946952291912396e+00,2.340246112984062847e+02,-1.471457495860695630e+01
2.857028504973399663e+00,2.354074024297598555e+02,-1.425452381100713239e+01
1.604804997350655071e+00,2.347091849146059985e+02,-1.352079471245849973e+01
2.279165632492436089e+01,2.269320012642555753e+02,-9.103238218091270539e+00
2.060803377047774276e+01,2.283030195970479497e+02,-1.029012951112248864e+01
2.223109676817779956e+01,2.288815644459020859e+02,-9.477232838917201363e+00
1.956288846439348461e+01,2.299528291035712186e+02,-1.084578189534285642e+01
1.770851218143889838e+01,2.302524160286397716e+02,-1.173890253293787644e+01
2.813546231728725644e+00,2.264982519998416137e+02,7.115167354946795086e+00
4.900119548739590769e+00,2.257138273079658575e+02,7.873652922120371933e+00
9.332125549269054687e-01,2.274201426411729301e+02,6.253246970524754644e+00
-6.687933120337863357e-01,2.285597119488413114e+02,5.295032599088429492e+00
-2.917194291869982692e+00,2.305327606087724064e+02,3.023481079213862444e+00
-1.868580954185755871e+00,2.298823437422536813e+02,4.317582859587457023e+00
-3.029895048092789978e+00,2.339941130995791525e+02,-7.841683508939647496e+00
-2.328007775526266698e+00,2.343738328918678917e+02,-9.279857329022989987e+00
-3.675595102269284098e+00,2.351213738563374989e+02,-6.295564462300834663e+00
-4.520556537019423615e+00,2.336474590260347384e+02,-1.505519363171906377e+00
-4.384196913998678724e+00,2.329261929310406458e+02,3.354036906832646991e-02
-3.823477587582022608e+00,2.321197501819193008e+02,1.572431470950304444e+00
-4.449521626511725003e+00,2.346536770973989974e+02,-3.048997354079606481e+00
-4.190379452495243129e+00,2.360074458483483966e+02,-4.690239191062230084e+00
-1.478503178174548793e+00,2.350440240882790874e+02,-1.062140824021690300e+01
-6.947319735070109914e-01,2.360768389389900506e+02,-1.163920047990925966e+01
3.823784256564906059e-01,2.366811264984745833e+02,-1.266925779986861755e+01
9.070825076619698280e+00,2.255076534990683683e+02,7.800546720426355662e+00
1.283500689067357570e+01,2.247210933515184763e+02,6.203871605427224267e+00
1.118059153281896911e+01,2.265948995040016598e+02,7.072138289655372390e+00
7.075623188587893964e+00,2.268926351796153540e+02,8.143939199571178733e+00
1.106215814533304354e+01,1.224435947108482026e+01,-1.725370597083960789e+01
1.237182334144434037e+01,1.195211328582668919e+01,-1.648711535201771028e+01
1.343534492664201707e+01,1.157800869971090130e+01,-1.534994990841441620e+01
9.027629325237176872e+00,2.063932020395319000e+01,7.613778956611398030e+00
1.083507100999822015e+01,1.938730620003702398e+01,6.009528153114342075e+00
1.223678437169809641e+01,1.864496920553730774e+01,4.304065690381573717e+00
1.337920213474884790e+01,1.792143545982946762e+01,2.355442612582219652e+00
1.392703481412142885e+01,1.617840657810178939e+01,1.328812228528729378e+00
1.445856829017671785e+01,1.437405920643459289e+01,4.527691896152674644e-02
1.536581770646852085e+01,1.310753472189477087e+01,-4.780638299491720034e+00
1.533634598279428296e+01,1.172732497522541806e+01,-3.127743965188138020e+00
1.484021968135157366e+01,1.230017292461335998e+01,-8.000268043429343834e-01
1.461116053275434368e+01,1.264809715168640558e+01,-1.204371930868362739e+01
1.547093901045337105e+01,1.120029707631356430e+01,-8.843135430134360320e+00
1.509777223426402415e+01,1.088716658744723453e+01,-1.123715912917820248e+01
1.563648100573812982e+01,1.099810578902865466e+01,-6.048152761325944482e+00
1.437160767018716001e+01,1.097280230819132818e+01,-1.363652599804048293e+01
-7.023778476462492648e+00,1.411919695535375752e+01,7.226848084222574187e+00
-7.988616817486125399e+00,1.369427868208599719e+01,5.504810098033757981e+00
-8.835486661371980688e+00,1.321311464645839706e+01,3.640403469473454834e+00
-9.614254119890388139e+00,1.299274927070075236e+01,1.724620961349025094e+00
-1.029835114774696336e+01,1.279677905412707162e+01,-4.065201366404522787e-01
-6.056059448977226367e+00,1.330396271157389165e+01,8.725319988144928374e+00
4.946891446684951177e+00,1.846765902694296457e+01,1.000848343948854335e+01
3.114670323622508619e+00,1.701932836127048176e+01,1.051604633253707988e+01
1.006032876752463778e+00,1.705891768908240991e+01,1.044306849155127281e+01
7.178532332061788424e+00,1.773904484717164109e+01,9.099038953441340283e+00
9.214374462837268354e+00,1.844671087086570793e+01,7.633180117209505511e+00
-2.298986676336880919e+00,1.528028475273796971e+01,9.970530996111246935e+00
-4.192304304433669415e-01,1.523803764281014139e+01,1.033885448762195836e+01
-3.546021200319000144e+00,1.368663388151309945e+01,9.867765511437553982e+00
-4.681202803460212891e+00,1.216831786446632080e+01,9.519979061776151497e+00
-1.139002275780370255e+01,1.168779892938551157e+01,-6.191249197722413555e+00
-1.136607440424223725e+01,1.120239664742066665e+01,-4.381893692832534271e+00
-1.125437151974077565e+01,1.220242574833599036e+01,-7.933982654928080080e+00
-1.120616618525258446e+01,1.061650204577231449e+01,-2.496214626216740839e+00
-1.079745266460250797e+01,1.055821146903033636e+01,-6.072086681916601947e-01
-1.150864666040304840e+01,1.026772011966896869e+01,-8.897790792388214243e+00
-1.166720534958922073e+01,8.670012016924605547e+00,-9.966465225159488739e+00
-1.109705572729093603e+01,9.200298818691813096e+00,-1.141794779650047076e+01
-1.031238880109273737e+01,9.997537914156026773e+00,-1.269406037841188351e+01
-9.335595532597835700e+00,1.098904308759558290e+01,-1.380198352747211032e+01
-8.331758749392506047e+00,1.175247884114757468e+01,-1.476301580152794912e+01
-7.363333903841787986e+00,1.214164973832578909e+01,-1.554209094785227130e+01
-6.433431856196396126e+00,1.196447248115600814e+01,-1.625968444658990464e+01
-5.509495649745868917e+00,1.183655700342537109e+01,-1.681982744874267510e+01
-3.270688113755565674e+00,1.311416344962387015e+01,-1.735997202331246214e+01
-4.426082642930099453e+00,1.143911518752496193e+01,-1.741395567633284358e+01
-3.435804689118420185e-01,1.292719564289521372e+01,-1.802954708357143332e+01
1.326933487401863232e+00,1.297604502379107316e+01,-1.816852201973798842e+01
2.904521124098717877e+00,1.351017260177523838e+01,-1.808234415628447067e+01
-1.927527174354304762e+00,1.279920609633240680e+01,-1.778375840682984688e+01
4.801898900166108319e+00,1.355834171380147524e+01,-1.803488434049245015e+01
6.493881841730186011e+00,1.327798837922678032e+01,-1.799840141477266542e+01
8.090847158575513731e+00,1.287508103452624297e+01,-1.792736529433943105e+01
9.572644311231634617e+00,1.240054821165480803e+01,-1.777193673978095845e+01
2.404191898084230417e+01,2.287841677124532680e+02,-8.436342699853984328e+00
2.564014502854038113e+01,2.283646683273946394e+02,-7.214407712645751758e+00
1.526980323935272921e+01,2.256920215677508565e+02,5.082803773137562153e+00
1.758408544034513810e+01,2.268174597973753919e+02,4.325583649452392265e+00
2.227732282258303798e+01,2.268620843522879227e+02,2.749008754359607565e+00
2.462088023341357257e+01,2.271602665755675048e+02,1.291802307396409333e+00
2.635873594014729093e+01,2.277834992487359784e+02,-6.121481906473515977e-01
2.704361520128054508e+01,2.277314222965754311e+02,-5.278424067742538917e+00
2.717310671642747621e+01,2.289908108222182364e+02,-2.317885562609875993e+00
2.727465539063166844e+01,2.295851337337111886e+02,-4.434380681408324421e+00
2.002329116348224503e+01,2.280568353725407178e+02,3.682567185166965018e+00
1.625748467981233603e+01,2.316168973263848727e+02,-1.242572688125425096e+01
1.327370075366067148e+01,2.329480209944316300e+02,-1.373421095714342854e+01
1.502298591853785048e+01,2.333501151592370491e+02,-1.299097320406231226e+01
1.065471273483030146e+01,2.349238793845051987e+02,-1.464890397922845722e+01
1.229244705239147351e+01,2.350070859077766272e+02,-1.412138534249256772e+01
8.168338787534175083e+00,2.360890407477373287e+02,-1.508069871085658242e+01
9.603529503212840268e+00,2.368005168664781195e+02,-1.489018664227816835e+01
7.098770532349206519e+00,2.374742601105400581e+02,-1.514357157834362155e+01
5.557325145821238266e+00,2.374454174838899405e+02,-1.504807622621879659e+01
3.986208395818628958e+00,2.364939055984151253e+02,-1.471402433557970468e+01
1.657868227295487884e+00,2.368803899603546483e+02,-1.364199137307948106e+01
2.610614094596655832e+00,2.380037433278507706e+02,-1.420736422028968349e+01
2.140053498490444639e+01,2.308952007304711174e+02,-9.959855222531956542e+00
2.337462548641615712e+01,2.308315206785710245e+02,-8.922670624001650452e+00
1.984419625190940550e+01,2.320729005406024896e+02,-1.075224023488958558e+01
1.822687423045136512e+01,2.327484804003419470e+02,-1.153127813142560676e+01
2.838033942470570281e+00,2.288301753666241325e+02,7.152830889392356895e+00
4.920412330889158525e+00,2.279787844011511027e+02,7.865077415837886221e+00
9.364583156404489017e-01,2.298405608175915233e+02,6.320859302152081582e+00
-6.366101488072413161e-01,2.309719433790748724e+02,5.391597008685742765e+00
-3.088955910850096132e+00,2.331177120464739119e+02,2.955180936138241066e+00
-2.041351575580890199e+00,2.321132153703857739e+02,4.230155848595773094e+00
-3.210449406316534748e+00,2.363888940397368401e+02,-7.815653921445147034e+00
-2.387824342498163332e+00,2.364423075751129204e+02,-9.442248923313389497e+00
-3.905488867565324540e+00,2.374349134705771291e+02,-6.058250174126289522e+00
-4.641487153244462149e+00,2.361542664704391825e+02,-1.505859845462596880e+00
-4.479439015122693490e+00,2.353471645230162608e+02,6.208911062598687636e-03
-3.939803868482020022e+00,2.343984289725922281e+02,1.499889077438808727e+00
-4.533273234583852229e+00,2.368423960758126725e+02,-3.163851608381310854e+00
-4.438591213820771486e+00,2.386346332242684127e+02,-4.226359176284749886e+00
-1.686289294153745288e+00,2.376434943813307257e+02,-1.059673817184895839e+01
-7.627235648963051062e-01,2.388078220701139003e+02,-1.177136434514202712e+01
7.637808124093155016e-01,2.386792609760489654e+02,-1.310383283053343462e+01
9.253815837607440642e+00,2.280747173988055465e+02,7.832545502283354111e+00
1.325078589250573913e+01,2.270965116842514249e+02,6.013484012370833298e+00
1.135901829030952825e+01,2.292894495425979642e+02,6.999464251419519556e+00
7.083876468804742643e+00,2.292277561745509331e+02,8.133270606039511463e+00
1.191041505051739335e+01,1.021126973894444667e+01,-1.750655549245576736e+01
1.052137936230889181e+01,1.046700038990739223e+01,-1.810007678952952404e+01
1.312840340487969826e+01,9.729594270196574968e+00,-1.657430757912191410e+01
1.410060067739443213e+01,9.272038824461739992e+00,-1.516484203869818259e+01
1.098898078046478233e+01,1.684481480416182464e+01,6.074700836728514020e+00
1.262332214578241185e+01,1.634844472271173998e+01,3.890130252589653281e+00
1.342012417077894959e+01,1.440046610867709909e+01,2.732817019465930031e+00
1.405286422611147934e+01,1.244351716753043746e+01,1.664937173921792635e+00
1.565268016555865671e+01,9.503042292262385615e+00,-3.711421153551825114e+00
1.518501932720393910e+01,9.915409333579244588e+00,-1.319895575637040963e+00
1.451448798701067489e+01,1.025164992821543031e+01,9.722189837923842504e-01
1.554862830936807327e+01,8.875366665966630819e+00,-1.061164255060817396e+01
1.582231349206911375e+01,9.074908200302346017e+00,-8.208876424411926109e+00
1.495159906192294486e+01,8.983937650570409161e+00,-1.301489242783233635e+01
1.590550249514981118e+01,8.782678050632201305e+00,-5.935359812174354488e+00
-7.317375522890266382e+00,1.170137660616217801e+01,7.254421787111645870e+00
-8.447892147401841356e+00,1.127923440586523540e+01,5.348684116711552861e+00
-9.391013201194130744e+00,1.058008764156016746e+01,3.489481581088035966e+00
-1.013846349080040632e+01,1.069453420145655187e+01,1.462542458357553699e+00
-5.902897194597006347e+00,1.080787806693282427e+01,8.852018591053006702e+00
5.204954823968691358e+00,1.630097090193909892e+01,1.013681151565830163e+01
3.769441484384163488e+00,1.467983514048265192e+01,1.062312377487175752e+01
1.712361068344225856e+00,1.496262535506667035e+01,1.062250494035765058e+01
9.114592757763972486e+00,1.619972717927694106e+01,7.958252670553605412e+00
7.095919555198733519e+00,1.549541248070504551e+01,9.386318218050242024e+00
-1.655772784335940884e+00,1.300236464971864336e+01,1.014671356256788926e+01
2.871528153832265673e-01,1.306383480853975954e+01,1.052398892247698825e+01
-2.887063875529989332e+00,1.131525721215621871e+01,9.797077045275202067e+00
-4.229126481236480828e+00,9.728624283399426531e+00,9.366685158150573898e+00
-1.185028594477782171e+01,9.306904563040653500e+00,-5.409690180494806100e+00
-1.178407324343644191e+01,9.678580062182238208e+00,-7.259023697940797604e+00
-1.178614489766319728e+01,8.757975424940315889e+00,-3.463249270185535522e+00
-1.149685635984566723e+01,8.418984612753021679e+00,-1.346002466605874304e+00
-1.095061976705918738e+01,8.362608151865632777e+00,7.178387895285709419e-01
-1.218389689919714414e+01,7.589042112860347800e+00,-8.145400820946377962e+00
-1.226500161871515360e+01,6.448551852103147297e+00,-9.535337893409931098e+00
-1.187774919013348551e+01,6.591159630301671513e+00,-1.101727040297453186e+01
-1.123457364341130216e+01,7.200840398049752622e+00,-1.236192196836748991e+01
-1.023844865693762429e+01,8.421154570782174886e+00,-1.358671441016526416e+01
-9.194115820749779289e+00,9.356455334800665824e+00,-1.468545077461621773e+01
-8.227610662300911315e+00,9.903068249960286451e+00,-1.554349706350335225e+01
-7.302968237527558415e+00,1.012686880502928055e+01,-1.628000455675609004e+01
-6.411322499974133393e+00,9.650846536320317526e+00,-1.702273219478827571e+01
-5.364742108983472590e+00,9.864190828879552342e+00,-1.749976108656927565e+01
-3.373504783021818998e+00,1.092052792670591899e+01,-1.791198738639268129e+01
-4.462979499296173103e+00,8.941507254537777172e+00,-1.816203075781178455e+01
-8.823529447107230084e-01,1.084548105897552617e+01,-1.847614349696833358e+01
6.436019243758543951e-01,1.097484552465626706e+01,-1.860128557974193342e+01
2.362100674577064296e+00,1.090982969600158370e+01,-1.871817937136096077e+01
3.751201465964157933e+00,1.190768451172364095e+01,-1.846426029257125734e+01
-2.171527728857058470e+00,1.067644302356837116e+01,-1.828753808983745799e+01
5.559335013377122436e+00,1.149500385267552005e+01,-1.852535060893626451e+01
7.276925680603625324e+00,1.103586123287656307e+01,-1.853527139663570722e+01
8.867084760446104497e+00,1.059317849047365279e+01,-1.846752693657759892e+01
2.502200121414933420e+01,2.309928484441992396e+02,-7.856686424890770404e+00
2.641031130656495662e+01,2.303274592698790855e+02,-6.415668560722477487e+00
1.564818503583517639e+01,2.281938527959733278e+02,5.075046782009067670e+00
1.781768468283781104e+01,2.297033898276207253e+02,4.321080712242812538e+00
2.280168872057591045e+01,2.292386629741470188e+02,2.491159562636006797e+00
2.502028553849354608e+01,2.292387403651013074e+02,9.429043484430277289e-01
2.633156978351463096e+01,2.304258152667487991e+02,-5.628014995212335947e-01
2.732953217287905190e+01,2.312032733216962299e+02,-3.034363636364594718e+00
2.705510592574959716e+01,2.321347337770829427e+02,-5.202987102987171042e+00
2.046300392352762998e+01,2.301898612933821084e+02,3.569431741059167607e+00
1.687306688316557768e+01,2.340219269628749430e+02,-1.216863723539683484e+01
1.397657974920073976e+01,2.352884371209118513e+02,-1.344774829040647646e+01
1.572272778312557051e+01,2.357535208222237202e+02,-1.270673489608380180e+01
1.128679932495937877e+01,2.370590190984434571e+02,-1.446488726420334814e+01
1.299203305229849903e+01,2.372791922192323000e+02,-1.385807596448336909e+01
8.438523293458143115e+00,2.387143442105487452e+02,-1.507408704468289784e+01
1.024072224034285128e+01,2.388899964808285006e+02,-1.477885524039896303e+01
6.749779285912538285e+00,2.393911612494862879e+02,-1.514685679076044877e+01
5.196973079798155482e+00,2.396589004432123602e+02,-1.500964293894698898e+01
4.076780781560351841e+00,2.385522462836218835e+02,-1.477948609223322762e+01
1.677477601008995123e+00,2.400566927071546388e+02,-1.378884487793428093e+01
3.150926804027328387e+00,2.400382762648177390e+02,-1.450641090981682524e+01
2.281979155488715350e+01,2.326023776623459867e+02,-9.288967776547755406e+00
2.145184070774074314e+01,2.334375044214806962e+02,-1.001593910379310337e+01
2.448010686947049308e+01,2.334033028180905092e+02,-8.351287268187816082e+00
2.004466960672523967e+01,2.344382686432524565e+02,-1.072224692197053564e+01
1.869295790764515530e+01,2.353305415959385982e+02,-1.135217193434285932e+01
2.807444423408323786e+00,2.311384815286078549e+02,7.151865988950305564e+00
4.896179012143925036e+00,2.302828779640579739e+02,7.838967665282588371e+00
9.201538949296743652e-01,2.322235429508280049e+02,6.351921364401539094e+00
-8.195233390525196171e-01,2.332801986929329416e+02,5.360945492869547024e+00
-3.274854018401146760e+00,2.356031088308781420e+02,2.828511958891777311e+00
-2.221904192182364568e+00,2.343975034602479468e+02,4.156784792437743903e+00
-3.570252817861103267e+00,2.389271765405783867e+02,-7.389250203545133289e+00
-2.794948961238034713e+00,2.384289927184054534e+02,-8.985197246172770491e+00
-4.140225089497263866e+00,2.396015606632884669e+02,-5.740199241152240006e+00
-4.715856953764912873e+00,2.384230704314546472e+02,-2.093336373683083451e+00
-4.647327798986488290e+00,2.378544344980373069e+02,-1.549526906160920703e-01
-4.116172118210275954e+00,2.368332615172607234e+02,1.371698507450060944e+00
-4.757345456941834527e+00,2.404223966103251939e+02,-2.873174238671014180e+00
-4.547219233499745883e+00,2.411980880121389532e+02,-4.531315177745284473e+00
-2.131691117083263975e+00,2.398150571357388969e+02,-1.024438439938876400e+01
1.510788573533972112e-02,2.406638884818325721e+02,-1.261804968932812443e+01
-1.401936024995627861e+00,2.412211144960814408e+02,-1.128040736437746361e+01
9.239420968803131018e+00,2.305430933738288957e+02,7.888259039338095135e+00
1.355926252356490025e+01,2.292105819960275426e+02,5.885084860684827390e+00
1.307476313867525519e+01,2.313541121678145487e+02,6.191150757008678340e+00
1.101053620697114255e+01,2.320540314182873942e+02,7.228248782249552917e+00
7.048851980410614004e+00,2.316038594576215814e+02,8.194549585848347917e+00
1.149786221212334425e+01,8.464570821850124105e+00,-1.843595640521275314e+01
1.271053308891345779e+01,8.180694355706377152e+00,-1.773372070900703079e+01
9.925807944505955049e+00,8.973040875070463329e+00,-1.881421387986608096e+01
1.395941420160732349e+01,7.303320405122754266e+00,-1.650699168488601742e+01
1.483255984078812162e+01,7.153512007853295884e+00,-1.456142920072501568e+01
1.199736994452529260e+01,1.454194370608578701e+01,5.130027206112007576e+00
1.028848493500944095e+01,1.435993489801124667e+01,7.153393179072111252e+00
1.285741869360491130e+01,1.241341778153798181e+01,4.163403391137531884e+00
1.357811413845490023e+01,1.036418426844776874e+01,3.302536687178282193e+00
1.603079791886538530e+01,7.028574318459972048e+00,-4.522839916218558187e+00
1.562812291753072458e+01,7.544690910754180635e+00,-2.133988949479061148e+00
1.503045492425109231e+01,7.930361310562718202e+00,2.327145503789438408e-01
1.420125106161009043e+01,8.245286144003745932e+00,2.532228062144813663e+00
1.601517696414537539e+01,6.910550596713742166e+00,-9.565066515244879497e+00
1.557846157230331130e+01,6.967471874378523111e+00,-1.212019757526758212e+01
1.617610890454716355e+01,6.791006187351028345e+00,-7.142665252150003141e+00
-6.797533954768525177e+00,9.346278576335670607e+00,8.064129926439669305e+00
-7.926547045808874259e+00,9.210648865251293671e+00,6.819120027294083286e+00
-8.880442031087554255e+00,8.814563625341378383e+00,5.337175169522922147e+00
-1.031843893727423556e+01,8.340421297133415734e+00,2.540403455678656996e+00
-9.758493426018011618e+00,7.819761490082077771e+00,4.103044460774150082e+00
-5.430294159858402026e+00,8.188498912633090043e+00,8.768410882930062655e+00
5.732853713393570416e+00,1.366509314706902956e+01,1.027755239775304119e+01
2.708081184274629294e+00,1.278086452427528386e+01,1.085936349229034192e+01
8.266061779692549294e+00,1.380382963178984568e+01,8.936147235318738780e+00
-1.005664223881133523e+00,1.052197777366897213e+01,1.023808096026045433e+01
9.707995849750012951e-01,1.117076511791033155e+01,1.073988236814614083e+01
-2.482190835931852746e+00,8.840742040887359821e+00,9.724921207032210191e+00
-3.770758856455422858e+00,7.188115561297626854e+00,9.131170151596130324e+00
-1.232698052146523793e+01,6.937286413789340855e+00,-4.315962464415640909e+00
-1.232542079132272050e+01,7.337467149800026789e+00,-6.308488426226986689e+00
-1.216768415972517126e+01,6.566015987440293245e+00,-2.188331087641763872e+00
-1.177914437372477607e+01,6.281198705478052702e+00,2.395924354584622051e-02
-1.118956248067612691e+01,6.064682098615854500e+00,2.060464651257795765e+00
-1.281881621104669833e+01,5.191251678710383288e+00,-6.781174935326276909e+00
-1.280790366506932543e+01,4.769430683543102845e+00,-8.296915378311403799e+00
-1.276135717745465570e+01,4.117544265472570686e+00,-9.775896763166905146e+00
-1.247339535578106506e+01,4.112927862109591715e+00,-1.111056040550728596e+01
-1.203124637439671218e+01,4.334130187670208301e+00,-1.234714990178164840e+01
-1.109579272528125671e+01,5.844525262367445961e+00,-1.346514151072439702e+01
-1.007292814419871974e+01,6.957172412170198328e+00,-1.460395477238248318e+01
-9.120690970131349218e+00,7.545506715557170452e+00,-1.557453895695187462e+01
-8.230556362616383126e+00,7.915287668797750698e+00,-1.636295637440124295e+01
-7.399901825980329306e+00,8.104520747362808919e+00,-1.696390028527072857e+01
-6.883585189305602370e+00,7.065284099277965524e+00,-1.772712047070778496e+01
-5.806267614392661258e+00,7.807246100430175417e+00,-1.801575177068502143e+01
-3.075608139455876966e+00,8.842035560926989390e+00,-1.861274657501002849e+01
-5.111779590253073380e+00,6.442504417963474950e+00,-1.879582083661149028e+01
-3.861076674948065168e+00,7.185828310676303232e+00,-1.894757861044428182e+01
-1.318148191274666203e-01,8.913569700014276620e+00,-1.910942164985342373e+01
-1.697800684255440729e+00,8.645335330240834892e+00,-1.895704828776678141e+01
1.544076004095074950e+00,8.959100840610924266e+00,-1.922564843153575254e+01
4.400044392793134307e+00,1.006424530320152932e+01,-1.895722337518021305e+01
3.303204680183100095e+00,8.723809153777809300e+00,-1.933974367046605636e+01
6.389527931092956692e+00,9.375315944843668703e+00,-1.908260460398464886e+01
8.065042424672824950e+00,8.778684948509258845e+00,-1.916329077780974544e+01
2.604259990780653666e+01,2.328972543498864525e+02,-6.962402194225299823e+00
1.545791202724154090e+01,2.306392568925177216e+02,5.120821773680340527e+00
1.724430209759649912e+01,2.323014560173799907e+02,4.551632118349682621e+00
1.960734018087008579e+01,2.321142430568736756e+02,3.820377354173647433e+00
2.220951679339230012e+01,2.317967296443491136e+02,2.860275147297508980e+00
2.440514227724531082e+01,2.312717060273429297e+02,1.412768600313465406e+00
2.567459720111062182e+01,2.328497795784110167e+02,3.676310139931491250e-01
2.686394502739804580e+01,2.324153988599190086e+02,-1.506605873713416699e+00
2.731040577070098863e+01,2.336042524516535934e+02,-3.461230436540670752e+00
2.697810330526656841e+01,2.346019246754680410e+02,-5.401270890614391362e+00
1.746469188671109407e+01,2.364051957535978374e+02,-1.193173324642325639e+01
1.477331917340847234e+01,2.376523194066614622e+02,-1.313522896969996800e+01
1.667685368054682726e+01,2.381215984834867072e+02,-1.230491924057018238e+01
1.200374085083327458e+01,2.392280081784329866e+02,-1.422372307604095809e+01
1.370557691269599587e+01,2.395991322047568985e+02,-1.358024061086032575e+01
9.230983638427851190e+00,2.407270391004571195e+02,-1.495539468378299830e+01
7.628031489105147500e+00,2.410498493230818440e+02,-1.515188228575803642e+01
1.098344450663151406e+01,2.410429995763675493e+02,-1.454286211309194776e+01
5.958403154085260667e+00,2.414441262034330862e+02,-1.512845911551509914e+01
4.256075615521602629e+00,2.414540270164878848e+02,-1.486841455872837514e+01
2.508402437075218927e+00,2.419131160407080472e+02,-1.430228752052473240e+01
9.432524790380441004e-01,2.422201447602664075e+02,-1.341737057215316753e+01
2.300385420362294298e+01,2.348135020262198509e+02,-9.268111138180374908e+00
2.160450112616541674e+01,2.358405955075658653e+02,-1.000022359767358360e+01
2.452247157454750948e+01,2.359277901021596335e+02,-8.392369660340204263e+00
2.590720338452904059e+01,2.352254299854012345e+02,-7.143983445128995413e+00
2.020342107384302466e+01,2.370155125060421994e+02,-1.068615678405786795e+01
1.881942719355437532e+01,2.383099001361351554e+02,-1.132861837937823069e+01
2.777071739876767253e+00,2.334100401073011710e+02,7.137381321392066269e+00
4.857875779979048403e+00,2.325621313651575974e+02,7.822451397219311708e+00
7.357875624226970501e-01,2.345305068883805575e+02,6.275973460513677438e+00
-1.066850688279158632e+00,2.355545415862733307e+02,5.254581968420065863e+00
-3.424070483961955347e+00,2.380855878241581536e+02,2.772304747150794668e+00
-2.443458709876921375e+00,2.367263379538174775e+02,4.034620655518741827e+00
-3.271095589379555690e+00,2.406166511690284722e+02,-8.465145789940608623e+00
-4.087273773209844308e+00,2.415490557244089302e+02,-6.497818748616459139e+00
-4.803710607225269769e+00,2.398648463230144330e+02,-8.736534093858754346e-01
-4.280246018425568622e+00,2.393437957246375447e+02,1.272744386692222562e+00
-4.903439204223502657e+00,2.428183039793399871e+02,-3.023164217421345334e+00
-4.966851429917355176e+00,2.420259220689617337e+02,-1.334517681280910750e+00
-4.659129759939055759e+00,2.434155155472018350e+02,-4.719447516300515844e+00
-2.691355860825908053e+00,2.420172280822931725e+02,-9.704197041797728573e+00
-6.007443529275207084e-01,2.429212288382769600e+02,-1.220715365365587779e+01
-1.994973027443570857e+00,2.435369010808372536e+02,-1.077438997181637070e+01
8.923870657542366303e+00,2.330387032682821769e+02,8.006472742453272673e+00
1.485952662437069804e+01,2.329616414272052509e+02,5.444312673485462994e+00
1.278403153722085150e+01,2.338267590790204622e+02,6.414871070467940584e+00
1.060876954950611761e+01,2.345714052452616443e+02,7.500879017523121917e+00
6.837085365322895569e+00,2.340291955443566678e+02,8.241983944098851822e+00
1.095457214544024538e+01,7.031127175678028252e+00,-1.924606558024095193e+01
1.242783220365570429e+01,6.224321797375660381e+00,-1.886037130366916870e+01
1.342878864205810885e+01,6.279086534419185739e+00,-1.788592419414685963e+01
9.514761073634176114e+00,7.373294279459972955e+00,-1.945669558469327853e+01
1.436364461998059738e+01,4.677014045773796980e+00,-1.737733204488496597e+01
1.491997400561581344e+01,5.197639440429933089e+00,-1.573930138683920887e+01
1.563607919875558849e+01,5.118799081986146859e+00,-1.353954063133145524e+01
1.132968699453214789e+01,1.227553355596810114e+01,6.377859279255517322e+00
9.460914294843576045e+00,1.197955065382314643e+01,8.377646608930692906e+00
1.226635978279204053e+01,1.025247243098221794e+01,5.608767151905965420e+00
1.306896450715201752e+01,8.231772394117253810e+00,4.892971019074192185e+00
1.640941599879476698e+01,4.816249513255440817e+00,-5.716209933945464172e+00
1.611708458515231968e+01,5.108718896897391559e+00,-3.137345699942002852e+00
1.557826569447999887e+01,5.576206744159659223e+00,-6.206934319957397861e-01
1.480040779042923660e+01,5.960606943331423935e+00,1.817094563487945180e+00
1.383279058765340963e+01,6.143632932504498712e+00,4.159461253453592633e+00
1.643572679998485242e+01,4.825715594821755161e+00,-8.360060577847555408e+00
1.617122002120509094e+01,5.011754995124702461e+00,-1.097489839921522758e+01
-6.862976361438811068e+00,7.008701731271454349e+00,7.983288077300436214e+00
-8.176990873543378058e+00,6.765495339425045884e+00,6.899044579053622783e+00
-9.392981575328445132e+00,6.205325027050896836e+00,5.536955212893296618e+00
-1.054730844087688268e+01,5.474491875460891777e+00,3.929450257965115156e+00
-5.325670046906385124e+00,5.687689093136368612e+00,8.580764244781100558e+00
7.218278326391548205e+00,1.176817246147117046e+01,9.975084794898997131e+00
4.763440158691988557e+00,1.153872282654690196e+01,1.088321110348053367e+01
2.670484681331814159e+00,1.021842527844539106e+01,1.112302303807477699e+01
6.420683194976781749e-01,8.787184298629128421e+00,1.076069433665112030e+01
-9.078063832833400681e-01,7.662644955292623905e+00,1.022822672026785540e+01
-2.229623126493432750e+00,6.170459629621518616e+00,9.642738656185301238e+00
-3.597484155611464729e+00,4.509320351723626885e+00,9.110103978122786827e+00
-1.286020943699073626e+01,5.037030962858036531e+00,-4.994901828131048660e+00
-1.279837343891573909e+01,4.710344918824997507e+00,-2.975208919642476246e+00
-1.261663783930031890e+01,4.354155338431850097e+00,-9.177849866632925568e-01
-1.224587697478880344e+01,4.009524354288156012e+00,1.077945706748366206e+00
-1.177596058746087238e+01,3.615880940287470757e+00,2.868277067149413995e+00
-1.344238185745885517e+01,2.827995547790079556e+00,-5.447849316175570777e+00
-1.343074614212284601e+01,2.617633233437457463e+00,-7.153636191041698567e+00
-1.343504898070465003e+01,1.998308089838214840e+00,-8.631170258275290053e+00
-1.332453449738816076e+01,1.514344081982539336e+00,-1.009642908662033989e+01
-1.301609219568107889e+01,1.547724394729646846e+00,-1.147556483298097163e+01
-1.279002993702360413e+01,1.077993872877888393e+00,-1.270195447699580527e+01
-1.192278192939792447e+01,3.149453196235993957e+00,-1.350278389097686826e+01
-1.090194777028018791e+01,4.582059064925266156e+00,-1.459231780675090562e+01
-9.967394718772002449e+00,5.224036959500027777e+00,-1.566285083631831654e+01
-9.052775241942743634e+00,5.615028430866901843e+00,-1.660623665816665095e+01
-8.132943060240855004e+00,5.891551826462588792e+00,-1.735041142978846196e+01
-7.574412709549310563e+00,4.807996785556138519e+00,-1.825723552716088705e+01
-6.424133432433975166e+00,5.391578445927011742e+00,-1.865053980140704937e+01
-2.548955061437537140e+00,6.535123485314857206e+00,-1.948358239779367551e+01
-4.162011895193426625e+00,5.189231226694086985e+00,-1.959062040325822807e+01
-5.625277765798515794e+00,4.168519857810691676e+00,-1.951709462299066900e+01
-8.665506413816501663e-01,6.888941488853399520e+00,-1.964079985657768646e+01
8.805899143134929830e-01,7.010743175820204343e+00,-1.978455997836978497e+01
2.687564768094549805e+00,6.868170106766584126e+00,-1.992429721673287446e+01
5.181226879696382071e+00,8.210479151121013786e+00,-1.949579503195228369e+01
4.531932674675438477e+00,6.678098614775603181e+00,-2.000196126098282434e+01
6.684538154440737401e+00,7.144310779499903674e+00,-1.979299680772998471e+01
8.400315690710954186e+00,6.601381230599681516e+00,-1.988117019371490102e+01
1.897268213034985607e+01,2.343362439656675633e+02,4.046576054918050502e+00
1.662136180104606353e+01,2.346774410980561072e+02,4.780302746527947733e+00
2.144418850819338829e+01,2.340405227924521796e+02,3.205234135388680627e+00
2.378195848359477793e+01,2.336641781713470039e+02,1.936029721819927829e+00
2.676794941949871287e+01,2.345438137360444557e+02,-1.158915947388012402e+00
2.533927324034223005e+01,2.351708934119103844e+02,6.752936497461714538e-01
2.733279242956938049e+01,2.358482886806347096e+02,-3.215998637014705785e+00
2.705542751117841505e+01,2.368879605211273258e+02,-5.230081897145870684e+00
1.561006360616965871e+01,2.398341549283614142e+02,-1.277404909475216321e+01
1.768200154250387612e+01,2.401402340342330035e+02,-1.186781752348775498e+01
1.260624881672690378e+01,2.416188694560575527e+02,-1.400228073026115005e+01
1.450110499954142540e+01,2.417314653510306925e+02,-1.325616239196781088e+01
1.000381623646518037e+01,2.426268354070641067e+02,-1.479588572215351050e+01
8.409343023698752972e+00,2.429437334787334350e+02,-1.508088597528709052e+01
6.823913904145719300e+00,2.432205104996328942e+02,-1.518242014385344874e+01
1.139404762167185226e+01,2.436704502568559860e+02,-1.440925921808599064e+01
5.133630740496414546e+00,2.433876749029561211e+02,-1.506668177288155519e+01
3.539831889324901226e+00,2.435303399680753103e+02,-1.471298992980065279e+01
1.891226453514569528e+00,2.439692280575245036e+02,-1.405805713117910472e+01
3.380016045071698727e-01,2.444897236619379441e+02,-1.306016020842094605e+01
2.318664861308414515e+01,2.370964863180799398e+02,-9.218704936790874882e+00
2.190478955391771620e+01,2.382334615759835401e+02,-9.883816245662634614e+00
2.609091187711980808e+01,2.375089510529718382e+02,-6.999231448753849172e+00
2.478791451099276699e+01,2.382663161676228185e+02,-8.289111642659857893e+00
2.065304089914377528e+01,2.394555827146170657e+02,-1.049800389717372973e+01
1.953676744465382598e+01,2.407993745743316651e+02,-1.102719336223676194e+01
2.589083740031554726e+00,2.354599246221946487e+02,7.085802355374012151e+00
4.777738116161104998e+00,2.348940228799622219e+02,7.802439164394692206e+00
3.688324116079062520e-01,2.367898516129296809e+02,6.172789397794360866e+00
-1.387421768994885340e+00,2.378143943152295492e+02,5.142858693105322843e+00
-3.575057464365031024e+00,2.404881846039535276e+02,2.795053461992912602e+00
-2.564236186251484639e+00,2.391298567803520996e+02,4.113520531443828787e+00
-3.649766856298924722e+00,2.427922408553124285e+02,-8.000528562933716614e+00
-4.345295513015194899e+00,2.440173759540353444e+02,-6.243853309148139630e+00
-4.695385255444868733e+00,2.411705288726295748e+02,3.670094457644008656e-01
-4.245573009897967154e+00,2.422077308404913083e+02,1.758102755482354951e+00
-5.144182132235016525e+00,2.443002041068810684e+02,-1.462104300270461010e+00
-5.096654828942220661e+00,2.452017919088387714e+02,-3.035916780210215826e+00
-4.892793344710241854e+00,2.434524668794634294e+02,2.437149565354559400e-01
-4.904140376278050439e+00,2.459164613685785241e+02,-4.521617380688414123e+00
-3.131310676752320887e+00,2.443272240481315976e+02,-9.286515132903977232e+00
-1.223162907010035383e+00,2.452036215257714105e+02,-1.174775459997252547e+01
-2.478630025595364827e+00,2.459349198089947777e+02,-1.033943043909357229e+01
8.583813243155322681e+00,2.355927029349076918e+02,8.219718503841402679e+00
1.468179859010413679e+01,2.354678961919709366e+02,5.582716019632311344e+00
1.219717672003122289e+01,2.360948741789859753e+02,6.819292563877322522e+00
1.019443536054491872e+01,2.371115145390181453e+02,7.724842353668272210e+00
6.543425775846440473e+00,2.365273266909755989e+02,8.211871959704392765e+00
1.170531844012231915e+01,5.218776112788511057e+00,-1.971247194424553228e+01
1.036846190394100375e+01,5.323318739172286485e+00,-2.009106193486898917e+01
1.364266487971177355e+01,4.240541435513195623e+00,-1.877230575159238413e+01
1.291123318906365824e+01,3.839133138663912703e+00,-1.968792141312096788e+01
1.479216452070572529e+01,2.460656642016202156e+00,-1.828860944263159638e+01
1.534464700677775539e+01,2.780806147432867803e+00,-1.662820294969785095e+01
1.586022199979060332e+01,3.104786442507689870e+00,-1.465465148590607214e+01
1.638237631427751140e+01,3.123815978458031495e+00,-1.221824363608633490e+01
1.062550584485437000e+01,1.000677897093638968e+01,7.745192989365278891e+00
8.677461009632324362e+00,9.785285972646235564e+00,9.554968189496850783e+00
1.166453146387596007e+01,8.029635501317512691e+00,7.089136663874924693e+00
1.258644027165883728e+01,6.017788033272145398e+00,6.473076009322920044e+00
1.657683948171041877e+01,2.698419575057137365e+00,-4.223095855244359598e+00
1.676197513377989878e+01,2.735778719043819862e+00,-6.938769003600668839e+00
1.612311496878101735e+01,3.084468835067104564e+00,-1.559236657587454999e+00
1.544026879674312980e+01,3.508066844557802710e+00,1.002376779037099652e+00
1.456220818186496402e+01,3.965309864767604608e+00,3.394854712056687873e+00
1.345913057801108437e+01,3.926281027036161220e+00,5.885369779332496165e+00
1.670905035753692047e+01,2.926105602377885972e+00,-9.583317396010563982e+00
-6.999547264177241601e+00,4.603341278210569598e+00,8.010511499151235171e+00
-8.672245149013166454e+00,4.476193801459243282e+00,6.961429000853570415e+00
-1.008101817468049788e+01,3.985892448143156130e+00,5.631486883841567703e+00
-1.127460862191504987e+01,3.029516608193061344e+00,4.434980620404672891e+00
-5.071264772031561563e+00,3.149625570638348471e+00,8.688575728128249409e+00
6.475412852624522486e+00,9.540941699475663285e+00,1.081116590108977249e+01
4.334252583624312649e+00,8.668639137557033081e+00,1.140507852578971892e+01
2.238313188811236643e+00,7.507805179373711724e+00,1.134325424410425143e+01
5.320626394735903375e-01,6.095547433670171600e+00,1.091659631742574987e+01
-8.035454365353693618e-01,4.751666400746834995e+00,1.033645820693766382e+01
-2.085187627956543110e+00,3.393563769546986464e+00,9.760006535517497639e+00
-3.590440153518326127e+00,1.534424165195523493e+00,9.315922295369077233e+00
-1.340629642086515716e+01,2.718240828224288919e+00,-3.597389153604922285e+00
-1.334209728720999522e+01,2.357185505598977215e+00,-1.673868557366574805e+00
-1.314278589819775789e+01,1.979791530232258623e+00,3.241444771411465808e-01
-1.281441906642455919e+01,1.566030713730850898e+00,2.309431168317992444e+00
-1.239899951768102682e+01,9.291878654420238082e-01,4.218066363528343743e+00
-1.409803035646100078e+01,4.746302751523323593e-01,-4.160442357755748333e+00
-1.410517243938575405e+01,3.590930770469284994e-01,-5.900823464522275685e+00
-1.416427770425070065e+01,-3.017642138090437243e-01,-7.342814461923893532e+00
-1.412111450340165320e+01,-9.057490927535534198e-01,-8.784197747456644834e+00
-1.394594022687938306e+01,-1.271876681618229199e+00,-1.022180741795329340e+01
-1.367369848318381997e+01,-1.350474013192966005e+00,-1.161916654640601365e+01
-1.345479572099949550e+01,-1.838978971420274888e+00,-1.301619676890296518e+01
-1.261640620269064428e+01,2.188581604007611148e-01,-1.396329335124573134e+01
-1.170598927012040846e+01,2.246451020800261489e+00,-1.459088452286486159e+01
-1.085606696734497234e+01,2.899331479275188528e+00,-1.570980891988921258e+01
-9.935828474319048809e+00,3.412049522960653114e+00,-1.674327379833476570e+01
-8.989640298967238152e+00,3.671297344276242214e+00,-1.768070338857595303e+01
-8.256940734029882378e+00,2.961723394618534400e+00,-1.867427356970663865e+01
-7.052246874641948438e+00,2.997745285434373130e+00,-1.940490073299874041e+01
-2.960197789362991827e+00,4.282870923999787749e+00,-2.025279146535096331e+01
-1.412635388941614778e+00,4.902655865759792064e+00,-2.028324163230580268e+01
-4.528770997305871404e+00,3.112172587146890379e+00,-2.035413588712766142e+01
-5.951792491957047737e+00,2.009046466613846782e+00,-2.039630121134186425e+01
3.311152131455123993e-01,5.102748047062254599e+00,-2.040917681639788128e+01
2.148227297054578600e+00,4.989371095878745166e+00,-2.056644875275257078e+01
4.010679788722466554e+00,4.829266978103650132e+00,-2.067115931311563770e+01
5.868239767192278578e+00,5.102081661101106391e+00,-2.054000552992674145e+01
7.510184013875949915e+00,5.195856910244430082e+00,-2.044888006453043872e+01
9.331962986310138319e+00,4.545711832009104114e+00,-2.056323638960961375e+01
1.801376875103190756e+01,2.365604979801318279e+02,4.288128386924979552e+00
2.077430462158304536e+01,2.361365371070576771e+02,3.365992132476868015e+00
1.597582906655977553e+01,2.377364850484776753e+02,5.057247846281546444e+00
2.322181094962984460e+01,2.360125251587109858e+02,2.229922718358015921e+00
2.666507766887971798e+01,2.366866766437374281e+02,-9.877594087437935322e-01
2.512671632743343508e+01,2.374264442449672572e+02,8.833667019202486870e-01
2.728868636009792681e+01,2.381527635585425742e+02,-2.973153036548933592e+00
2.718303189030175204e+01,2.391769307786305490e+02,-4.932211544598085418e+00
1.647999813440551975e+01,2.419393394734058234e+02,-1.240412109526657503e+01
1.842450533393807177e+01,2.424676461899826450e+02,-1.154669121296256584e+01
1.335263701127628799e+01,2.436576288721576873e+02,-1.371208418451286981e+01
1.535905325166097946e+01,2.437963031837041683e+02,-1.289792156576325688e+01
9.474573926072345387e+00,2.446794069152588804e+02,-1.490381682243136474e+01
7.783687019565871168e+00,2.450404155585723629e+02,-1.516060467373167242e+01
6.117560907199880660e+00,2.452234470551747165e+02,-1.518018468026000889e+01
1.235085475440595992e+01,2.456016813876876483e+02,-1.409189179869353481e+01
1.056802978063057452e+01,2.460707695367217980e+02,-1.467025678529792820e+01
4.466270439916002033e+00,2.454406827825104074e+02,-1.497837274966641274e+01
2.878271015268261124e+00,2.456906889520668926e+02,-1.453517298138391922e+01
1.241238441277637605e+00,2.460982869620037548e+02,-1.376542541910173512e+01
-3.420623656452619343e-01,2.467763047330512336e+02,-1.262649899810361731e+01
2.346599575092007228e+01,2.393809256222693875e+02,-9.133186595353524950e+00
2.227657812981102126e+01,2.405822267063419986e+02,-9.750290505020640097e+00
2.628551713037035853e+01,2.397833058998688784e+02,-6.793633452859110022e+00
2.499538439749505514e+01,2.405394431771118207e+02,-8.157980452600273935e+00
2.128737394381106185e+01,2.419460050401521016e+02,-1.022963631332203960e+01
2.017395708452651348e+01,2.432180886854215203e+02,-1.075249881021974829e+01
2.239288530216951401e+00,2.374259814580203169e+02,6.992752446934526134e+00
4.426007063036347944e+00,2.370492982048224633e+02,7.680602550348488045e+00
-7.249012831303502935e-02,2.389547453202887652e+02,6.051525943996971080e+00
1.693520572898533416e+00,2.393797833114796276e+02,6.814188861513532203e+00
-1.407670636372111872e+00,2.402224064227749238e+02,5.295622735136426229e+00
-3.484893524386382779e+00,2.430194298728379749e+02,3.171294753830560254e+00
-2.633571040600116930e+00,2.414299971812542651e+02,4.205367178067271894e+00
-3.983919893179312055e+00,2.451463379989527311e+02,-7.665612391125528724e+00
-4.613918884389327957e+00,2.465925545701215924e+02,-6.044191137516753187e+00
-4.380024839345079357e+00,2.447712604715140969e+02,1.793887615449937911e+00
-5.297427565460417043e+00,2.467569468104231021e+02,-1.492078907649448283e+00
-5.079776900296927522e+00,2.456674454103940377e+02,-3.572810724214292577e-02
