8.996756553649902344e+00,3.327261657714843750e+02,2.496643066406250000e+01
-5.514869213104248047e+00,3.364081420898437500e+02,2.183222961425781250e+01
-6.440104961395263672e+00,3.362687988281250000e+02,2.028756141662597656e+01
-8.142646789550781250e+00,3.362723693847656250e+02,1.736497879028320312e+01
-7.749709606170654297e+00,3.373473205566406250e+02,1.921698188781738281e+01
-9.601324081420898438e+00,3.372192077636718750e+02,1.599496364593505859e+01
-1.114199066162109375e+01,3.378183898925781250e+02,1.453580474853515625e+01
-1.448505592346191406e+01,3.385210876464843750e+02,1.144608783721923828e+01
-1.620134925842285156e+01,3.392173461914062500e+02,1.040354347229003906e+01
-1.706348991394042969e+01,3.383700561523437500e+02,8.905117034912109375e+00
-1.281612396240234375e+01,3.381454467773437500e+02,1.290841293334960938e+01
1.325070285797119141e+01,3.330538940429687500e+02,2.383161735534667969e+01
1.124574470520019531e+01,3.329798889160156250e+02,2.457815742492675781e+01
1.619709014892578125e+01,3.318672180175781250e+02,2.127428817749023438e+01
1.540642452239990234e+01,3.331903686523437500e+02,2.285463523864746094e+01
1.927339553833007812e+01,3.308136901855468750e+02,1.867237663269042969e+01
1.842414093017578125e+01,3.322790222167968750e+02,2.033150482177734375e+01
2.135439682006835938e+01,3.307754211425781250e+02,1.741707611083984375e+01
-1.748500251770019531e+01,3.349677429199218750e+02,-2.683634567260742188e+01
-1.944574356079101562e+01,3.351834106445312500e+02,-2.591553306579589844e+01
-2.103784561157226562e+01,3.352120361328125000e+02,-2.460277938842773438e+01
-2.231052017211914062e+01,3.349037475585937500e+02,-2.256204605102539062e+01
-2.348835372924804688e+01,3.350223388671875000e+02,-2.077869987487792969e+01
-2.448212432861328125e+01,3.349902038574218750e+02,-1.868988037109375000e+01
-2.542620086669921875e+01,3.351930847167968750e+02,-1.677677917480468750e+01
-2.611685562133789062e+01,3.353600769042968750e+02,-1.485995769500732422e+01
-2.668747711181640625e+01,3.356862182617187500e+02,-1.275525283813476562e+01
-2.714684867858886719e+01,3.362871704101562500e+02,-1.057295989990234375e+01
-2.760465621948242188e+01,3.372021789550781250e+02,-8.461998939514160156e+00
-2.795477485656738281e+01,3.381945800781250000e+02,-6.376465797424316406e+00
-2.656038856506347656e+01,3.377123413085937500e+02,-4.202021598815917969e+00
-2.602235984802246094e+01,3.382994689941406250e+02,-1.526622414588928223e+00
-2.591926193237304688e+01,3.390939941406250000e+02,6.255087256431579590e-01
-2.195811653137207031e+01,3.388454895019531250e+02,5.095897674560546875e+00
-2.025025749206542969e+01,3.386467285156250000e+02,6.381176948547363281e+00
-2.377780342102050781e+01,3.392532043457031250e+02,3.835226297378540039e+00
-2.569513702392578125e+01,3.398832702636718750e+02,2.644615173339843750e+00
3.277320480346679688e+01,3.335113220214843750e+02,9.815363585948944092e-02
3.255369186401367188e+01,3.339122314453125000e+02,-1.842185020446777344e+00
3.220751953125000000e+01,3.340837402343750000e+02,-3.563858509063720703e+00
3.159438323974609375e+01,3.355675964355468750e+02,-4.522552967071533203e+00
-5.542240619659423828e+00,3.376506042480468750e+02,-2.864745330810546875e+01
-7.764444828033447266e+00,3.382190856933593750e+02,-2.939344787597656250e+01
-9.521077156066894531e+00,3.370910339355468750e+02,-2.895358467102050781e+01
-1.095842838287353516e+01,3.360418701171875000e+02,-2.842778778076171875e+01
-1.297979927062988281e+01,3.364208068847656250e+02,-2.859331703186035156e+01
-1.484926795959472656e+01,3.365463562011718750e+02,-2.845805740356445312e+01
-1.679344558715820312e+01,3.365742492675781250e+02,-2.808575630187988281e+01
2.827099037170410156e+01,3.392477722167968750e+02,-8.951323509216308594e+00
2.564377784729003906e+01,3.406594238281250000e+02,-1.176342391967773438e+01
2.295454788208007812e+01,3.413272399902343750e+02,-1.442543792724609375e+01
2.438395500183105469e+01,3.420379028320312500e+02,-1.299278163909912109e+01
2.694929695129394531e+01,3.411230773925781250e+02,-1.009046268463134766e+01
1.767656707763671875e+01,3.410929870605468750e+02,-1.834700775146484375e+01
1.579014396667480469e+01,3.415387878417968750e+02,-1.999019622802734375e+01
1.398002243041992188e+01,3.403598937988281250e+02,-2.068960189819335938e+01
1.204995155334472656e+01,3.408970336914062500e+02,-2.219649124145507812e+01
2.011912727355957031e+01,3.419384765625000000e+02,-1.682717323303222656e+01
2.175430107116699219e+01,3.427025756835937500e+02,-1.565836524963378906e+01
2.955617332458496094e+01,3.384830322265625000e+02,-7.313136100769042969e+00
3.072599792480468750e+01,3.371719970703125000e+02,-5.701791763305664062e+00
2.536885261535644531e+00,3.399147949218750000e+02,-2.716540527343750000e+01
2.271457761526107788e-01,3.399479980468750000e+02,-2.819628334045410156e+01
1.001306533813476562e+01,3.414360046386718750e+02,-2.373890304565429688e+01
7.801772117614746094e+00,3.414550476074218750e+02,-2.506385803222656250e+01
5.872513771057128906e+00,3.415390930175781250e+02,-2.627601814270019531e+01
3.896163463592529297e+00,3.414627990722656250e+02,-2.737328910827636719e+01
-2.164604425430297852e+00,3.400344848632812500e+02,-2.907559776306152344e+01
-4.131421566009521484e+00,3.391311645507812500e+02,-2.917191886901855469e+01
2.350454521179199219e+01,3.317311706542968750e+02,1.681663894653320312e+01
2.497391510009765625e+01,3.308632812500000000e+02,1.526271629333496094e+01
2.664639472961425781e+01,3.316647949218750000e+02,1.468391036987304688e+01
2.819845199584960938e+01,3.327691955566406250e+02,1.402897167205810547e+01
2.944971466064453125e+01,3.330657653808593750e+02,1.240775680541992188e+01
3.027769470214843750e+01,3.336028137207031250e+02,1.061158275604248047e+01
3.079256820678710938e+01,3.330279235839843750e+02,8.591560363769531250e+00
3.174305534362792969e+01,3.339560241699218750e+02,5.171175956726074219e+00
3.239964294433593750e+01,3.332776794433593750e+02,3.343338012695312500e+00
3.115134048461914062e+01,3.344650878906250000e+02,7.121099948883056641e+00
3.235270690917968750e+01,3.348038024902343750e+02,1.863743901252746582e+00
-1.816222763061523438e+01,3.401447753906250000e+02,9.577765464782714844e+00
-1.975659751892089844e+01,3.400296325683593750e+02,8.223525047302246094e+00
-4.119663715362548828e+00,3.363703308105468750e+02,2.374917221069335938e+01
-2.199319839477539062e+00,3.355652465820312500e+02,2.483000564575195312e+01
-1.433073133230209351e-01,3.350344543457031250e+02,2.570788764953613281e+01
1.985053777694702148e+00,3.348797912597656250e+02,2.646577453613281250e+01
5.712388038635253906e+00,3.339914855957031250e+02,2.632632255554199219e+01
4.303214073181152344e+00,3.351247863769531250e+02,2.722342491149902344e+01
7.935355663299560547e+00,3.341679687500000000e+02,2.638347244262695312e+01
1.024609947204589844e+01,3.342864379882812500e+02,2.606335449218750000e+01
-7.246679306030273438e+00,3.381446533203125000e+02,2.138016700744628906e+01
-5.889011383056640625e+00,3.377333679199218750e+02,2.311192703247070312e+01
-9.139679908752441406e+00,3.383153686523437500e+02,1.782572174072265625e+01
-8.669083595275878906e+00,3.391582031250000000e+02,2.002588462829589844e+01
-1.070788192749023438e+01,3.392343444824218750e+02,1.638169670104980469e+01
-1.230936241149902344e+01,3.395303649902343750e+02,1.461437606811523438e+01
-1.557214069366455078e+01,3.403710937500000000e+02,1.195023536682128906e+01
-1.396396541595458984e+01,3.399552612304687500e+02,1.314394855499267578e+01
-1.728824996948242188e+01,3.412590332031250000e+02,1.129815673828125000e+01
1.470031738281250000e+01,3.344730529785156250e+02,2.445624923706054688e+01
1.250570106506347656e+01,3.346202087402343750e+02,2.563392257690429688e+01
1.750895500183105469e+01,3.334857177734375000e+02,2.192290115356445312e+01
1.673203086853027344e+01,3.348328247070312500e+02,2.366841888427734375e+01
2.033721351623535156e+01,3.323568115234375000e+02,1.925021743774414062e+01
1.966835021972656250e+01,3.340897521972656250e+02,2.116218757629394531e+01
2.220450782775878906e+01,3.326593627929687500e+02,1.835216140747070312e+01
-1.882890510559082031e+01,3.366293029785156250e+02,-2.739473152160644531e+01
-2.066651535034179688e+01,3.368381958007812500e+02,-2.646732902526855469e+01
-2.270627975463867188e+01,3.362496643066406250e+02,-2.397031021118164062e+01
-2.226755905151367188e+01,3.372812500000000000e+02,-2.563559532165527344e+01
-2.406195068359375000e+01,3.365399475097656250e+02,-2.247828674316406250e+01
-2.504939842224121094e+01,3.362920227050781250e+02,-2.026337814331054688e+01
-2.617007827758789062e+01,3.365333251953125000e+02,-1.838096809387207031e+01
-2.717978286743164062e+01,3.368535461425781250e+02,-1.657345771789550781e+01
-2.767364883422851562e+01,3.368553771972656250e+02,-1.464429378509521484e+01
-2.822171401977539062e+01,3.371716308593750000e+02,-1.246076297760009766e+01
-2.879192352294921875e+01,3.378107910156250000e+02,-1.044780349731445312e+01
-2.926399612426757812e+01,3.387318115234375000e+02,-8.481825828552246094e+00
-2.852148056030273438e+01,3.393316040039062500e+02,-4.582198143005371094e+00
-2.967922592163085938e+01,3.398395996093750000e+02,-6.611660480499267578e+00
-2.752442741394042969e+01,3.390751953125000000e+02,-2.711831569671630859e+00
-2.768113899230957031e+01,3.399732360839843750e+02,-7.013771533966064453e-01
-2.760847091674804688e+01,3.407610168457031250e+02,1.263842225074768066e+00
-2.349410820007324219e+01,3.403921813964843750e+02,5.656666755676269531e+00
-2.158076667785644531e+01,3.401253051757812500e+02,6.903733730316162109e+00
-2.527371788024902344e+01,3.407926330566406250e+02,4.617183208465576172e+00
-2.720324325561523438e+01,3.414727783203125000e+02,3.254403591156005859e+00
3.227094268798828125e+01,3.355605163574218750e+02,-4.779884219169616699e-01
3.187426757812500000e+01,3.363318481445312500e+02,-2.425132751464843750e+00
3.107983207702636719e+01,3.379115905761718750e+02,-3.894269943237304688e+00
-6.223843574523925781e+00,3.394690856933593750e+02,-2.984636116027832031e+01
-8.384827613830566406e+00,3.401569824218750000e+02,-3.048918914794921875e+01
-9.965772628784179688e+00,3.389516906738281250e+02,-2.999441909790039062e+01
-1.173351192474365234e+01,3.378652343750000000e+02,-2.944062995910644531e+01
-1.386263465881347656e+01,3.385152282714843750e+02,-2.964146804809570312e+01
-1.594257545471191406e+01,3.384115600585937500e+02,-2.921519279479980469e+01
-1.813494110107421875e+01,3.382799682617187500e+02,-2.857364082336425781e+01
2.796772003173828125e+01,3.416936950683593750e+02,-8.394795417785644531e+00
2.908023834228515625e+01,3.406534423828125000e+02,-6.970760345458984375e+00
2.572451210021972656e+01,3.429062805175781250e+02,-1.126232719421386719e+01
2.322310638427734375e+01,3.439267272949218750e+02,-1.414387989044189453e+01
2.456620788574218750e+01,3.441687011718750000e+02,-1.249926948547363281e+01
2.669761657714843750e+01,3.435068359375000000e+02,-9.671864509582519531e+00
1.889256477355957031e+01,3.428678894042968750e+02,-1.810217666625976562e+01
1.725627517700195312e+01,3.431197204589843750e+02,-1.955458641052246094e+01
1.557240200042724609e+01,3.435999450683593750e+02,-2.109225273132324219e+01
1.394776630401611328e+01,3.422313537597656250e+02,-2.164596176147460938e+01
1.212896728515625000e+01,3.427782592773437500e+02,-2.310790824890136719e+01
2.038439941406250000e+01,3.444312133789062500e+02,-1.714020156860351562e+01
2.187043952941894531e+01,3.448443298339843750e+02,-1.562674522399902344e+01
3.012937545776367188e+01,3.394225769042968750e+02,-5.438417434692382812e+00
1.678437113761901855e+00,3.414349365234375000e+02,-2.842591667175292969e+01
-6.532490253448486328e-01,3.416111145019531250e+02,-2.939792823791503906e+01
1.051574039459228516e+01,3.434175720214843750e+02,-2.443708419799804688e+01
8.794806480407714844e+00,3.431276550292968750e+02,-2.536486244201660156e+01
6.971689701080322266e+00,3.433219909667968750e+02,-2.659804534912109375e+01
5.097617149353027344e+00,3.432239685058593750e+02,-2.766526985168457031e+01
3.088354587554931641e+00,3.430083618164062500e+02,-2.859743118286132812e+01
-2.876757860183715820e+00,3.419682312011718750e+02,-3.028592491149902344e+01
-4.527200222015380859e+00,3.407965087890625000e+02,-3.017535972595214844e+01
2.539020538330078125e+01,3.326966247558593750e+02,1.631174850463867188e+01
2.395901107788085938e+01,3.335785522460937500e+02,1.797988128662109375e+01
2.721729850769042969e+01,3.336807250976562500e+02,1.562500762939453125e+01
2.900482559204101562e+01,3.345727844238281250e+02,1.405020999908447266e+01
2.996235847473144531e+01,3.352684936523437500e+02,1.226845741271972656e+01
3.070762634277343750e+01,3.351989135742187500e+02,9.155241012573242188e+00
3.041999435424804688e+01,3.363554992675781250e+02,1.075565528869628906e+01
3.129269790649414062e+01,3.362329711914062500e+02,5.785204887390136719e+00
3.182583808898925781e+01,3.356184997558593750e+02,3.823685646057128906e+00
3.092877960205078125e+01,3.365556030273437500e+02,7.630626678466796875e+00
3.159917449951171875e+01,3.374092712402343750e+02,2.894385576248168945e+00
3.192468452453613281e+01,3.367272644042968750e+02,1.099955558776855469e+00
-1.973503112792968750e+01,3.417883911132812500e+02,9.954464912414550781e+00
-2.139853668212890625e+01,3.415838928222656250e+02,8.578922271728515625e+00
-5.444910526275634766e+00,3.381348571777343750e+02,2.487044334411621094e+01
-3.615652322769165039e+00,3.372183227539062500e+02,2.571836280822753906e+01
-1.601455807685852051e+00,3.366931762695312500e+02,2.662256050109863281e+01
5.291488766670227051e-01,3.363838500976562500e+02,2.735197639465332031e+01
2.721761226654052734e+00,3.362536621093750000e+02,2.797290039062500000e+01
6.674987316131591797e+00,3.355269775390625000e+02,2.775943946838378906e+01
5.054950237274169922e+00,3.365805053710937500e+02,2.871208190917968750e+01
9.096499443054199219e+00,3.355153808593750000e+02,2.752281951904296875e+01
1.125974750518798828e+01,3.358020019531250000e+02,2.730805206298828125e+01
-8.568316459655761719e+00,3.399057922363281250e+02,2.210991287231445312e+01
-7.245876312255859375e+00,3.391572265625000000e+02,2.350496101379394531e+01
-9.994932174682617188e+00,3.400725097656250000e+02,1.870191574096679688e+01
-9.904648780822753906e+00,3.409071044921875000e+02,2.082059860229492188e+01
-1.228127288818359375e+01,3.410178833007812500e+02,1.616459274291992188e+01
-1.125949001312255859e+01,3.409789123535156250e+02,1.772434806823730469e+01
-1.373537063598632812e+01,3.413212280273437500e+02,1.467874240875244141e+01
-1.555717754364013672e+01,3.418460998535156250e+02,1.329950904846191406e+01
-1.869713020324707031e+01,3.426947021484375000e+02,1.153360557556152344e+01
-1.719465446472167969e+01,3.430800781250000000e+02,1.302995872497558594e+01
1.434432125091552734e+01,3.357115173339843750e+02,2.591413497924804688e+01
1.634041595458984375e+01,3.361546325683593750e+02,2.525473976135253906e+01
1.318064975738525391e+01,3.364656372070312500e+02,2.729304885864257812e+01
1.857695198059082031e+01,3.351133117675781250e+02,2.281738853454589844e+01
1.837995147705078125e+01,3.366104431152343750e+02,2.446063232421875000e+01
2.130585479736328125e+01,3.339269409179687500e+02,1.998486137390136719e+01
2.162340927124023438e+01,3.356380310058593750e+02,2.133938980102539062e+01
2.026663970947265625e+01,3.360814208984375000e+02,2.266882324218750000e+01
2.294007110595703125e+01,3.347109069824218750e+02,1.963402557373046875e+01
-2.011519241333007812e+01,3.384775085449218750e+02,-2.782983589172363281e+01
-2.191345977783203125e+01,3.388711242675781250e+02,-2.703261756896972656e+01
-2.390963172912597656e+01,3.378510131835937500e+02,-2.454997062683105469e+01
-2.357310867309570312e+01,3.393560180664062500e+02,-2.612964439392089844e+01
-2.561499023437500000e+01,3.375507507324218750e+02,-2.165825271606445312e+01
-2.537827873229980469e+01,3.384059143066406250e+02,-2.339589118957519531e+01
-2.677917861938476562e+01,3.378033752441406250e+02,-1.996288490295410156e+01
-2.790480422973632812e+01,3.381459045410156250e+02,-1.821881103515625000e+01
-2.895018005371093750e+01,3.385476074218750000e+02,-1.637797355651855469e+01
-2.906292343139648438e+01,3.381718139648437500e+02,-1.428893470764160156e+01
-2.979539489746093750e+01,3.387538146972656250e+02,-1.247242450714111328e+01
-3.034527015686035156e+01,3.394846191406250000e+02,-1.057620811462402344e+01
-3.074843788146972656e+01,3.405500183105468750e+02,-8.711404800415039062e+00
-2.911094856262207031e+01,3.406299133300781250e+02,-2.462270021438598633e+00
-3.006484413146972656e+01,3.410273742675781250e+02,-4.668289184570312500e+00
-3.104671859741210938e+01,3.417708129882812500e+02,-6.842294216156005859e+00
-2.929087448120117188e+01,3.418144836425781250e+02,-3.110722303390502930e-01
-2.889340019226074219e+01,3.426406860351562500e+02,1.939731597900390625e+00
-2.504880905151367188e+01,3.421485290527343750e+02,6.526870727539062500e+00
-2.308897590637207031e+01,3.414777832031250000e+02,7.217597484588623047e+00
-2.667665481567382812e+01,3.422339172363281250e+02,5.100749969482421875e+00
-2.837853240966796875e+01,3.433638916015625000e+02,3.947907447814941406e+00
3.167899894714355469e+01,3.377252807617187500e+02,-5.739349722862243652e-01
3.117626571655273438e+01,3.388604736328125000e+02,-2.104311227798461914e+00
3.045548629760742188e+01,3.403143920898437500e+02,-3.585123062133789062e+00
-6.773468494415283203e+00,3.414083251953125000e+02,-3.088984680175781250e+01
-8.943290710449218750e+00,3.422337341308593750e+02,-3.149233245849609375e+01
-1.044186401367187500e+01,3.410068359375000000e+02,-3.101551055908203125e+01
-1.198102760314941406e+01,3.397278137207031250e+02,-3.040677261352539062e+01
-1.377007865905761719e+01,3.406068420410156250e+02,-3.069645690917968750e+01
-1.542691993713378906e+01,3.404264221191406250e+02,-3.031360054016113281e+01
-1.742732810974121094e+01,3.399429321289062500e+02,-2.957100868225097656e+01
-1.946746063232421875e+01,3.401416625976562500e+02,-2.893961524963378906e+01
2.764927864074707031e+01,3.439217834472656250e+02,-7.901365280151367188e+00
2.869388198852539062e+01,3.429235839843750000e+02,-6.380084514617919922e+00
2.962236976623535156e+01,3.417326965332031250e+02,-4.960277557373046875e+00
2.541979598999023438e+01,3.454898376464843750e+02,-1.100128555297851562e+01
2.271362304687500000e+01,3.465283508300781250e+02,-1.453856372833251953e+01
2.398556709289550781e+01,3.461534118652343750e+02,-1.292517662048339844e+01
2.646722030639648438e+01,3.457564697265625000e+02,-9.218187332153320312e+00
1.873118972778320312e+01,3.449511413574218750e+02,-1.882138252258300781e+01
1.705906295776367188e+01,3.452782592773437500e+02,-2.042473793029785156e+01
1.539029693603515625e+01,3.456561279296875000e+02,-2.206072235107421875e+01
1.381693840026855469e+01,3.442119750976562500e+02,-2.266169548034667969e+01
1.208631992340087891e+01,3.448394165039062500e+02,-2.410632324218750000e+01
1.990729331970214844e+01,3.468266296386718750e+02,-1.786468696594238281e+01
2.130779457092285156e+01,3.469267578125000000e+02,-1.624608612060546875e+01
8.136615157127380371e-01,3.431407165527343750e+02,-2.959567451477050781e+01
-1.477343678474426270e+00,3.435446777343750000e+02,-3.054346275329589844e+01
1.025370407104492188e+01,3.452527160644531250e+02,-2.546838378906250000e+01
8.420152664184570312e+00,3.449987792968750000e+02,-2.651798820495605469e+01
6.405315876007080078e+00,3.451497802734375000e+02,-2.781892395019531250e+01
4.432301044464111328e+00,3.449559326171875000e+02,-2.881225013732910156e+01
2.250870704650878906e+00,3.446783447265625000e+02,-2.968028068542480469e+01
-3.611547470092773438e+00,3.441329040527343750e+02,-3.138068962097167969e+01
-5.136095046997070312e+00,3.427471313476562500e+02,-3.118319511413574219e+01
2.564137649536132812e+01,3.343835449218750000e+02,1.750634574890136719e+01
2.456380462646484375e+01,3.354828796386718750e+02,1.922346115112304688e+01
2.717490959167480469e+01,3.352015380859375000e+02,1.688931465148925781e+01
2.856231307983398438e+01,3.357735595703125000e+02,1.560430526733398438e+01
2.963005065917968750e+01,3.366728515625000000e+02,1.400381469726562500e+01
3.018868827819824219e+01,3.377151489257812500e+02,1.241729927062988281e+01
3.065387344360351562e+01,3.377090759277343750e+02,9.172677040100097656e+00
3.043784523010253906e+01,3.388934631347656250e+02,1.085245990753173828e+01
3.084075164794921875e+01,3.386064758300781250e+02,7.065637111663818359e+00
3.121474266052246094e+01,3.379576416015625000e+02,4.844931125640869141e+00
3.133144950866699219e+01,3.389675903320312500e+02,1.462916374206542969e+00
3.104666900634765625e+01,3.396843261718750000e+02,3.432436227798461914e+00
-2.057817077636718750e+01,3.437337036132812500e+02,1.116826534271240234e+01
-2.195219230651855469e+01,3.432209777832031250e+02,9.764587402343750000e+00
-2.358424758911132812e+01,3.428799438476562500e+02,8.301324844360351562e+00
-7.044587612152099609e+00,3.396281738281250000e+02,2.552148246765136719e+01
-5.222352027893066406e+00,3.388212280273437500e+02,2.677674865722656250e+01
-3.224066734313964844e+00,3.382135009765625000e+02,2.759699630737304688e+01
-9.226366281509399414e-01,3.378193054199218750e+02,2.834227752685546875e+01
1.297661662101745605e+00,3.376591186523437500e+02,2.900986099243164062e+01
3.462569713592529297e+00,3.375458374023437500e+02,2.946581649780273438e+01
7.998641490936279297e+00,3.367308044433593750e+02,2.888416099548339844e+01
6.361861705780029297e+00,3.375794372558593750e+02,2.980359268188476562e+01
1.010692596435546875e+01,3.370354614257812500e+02,2.886585235595703125e+01
1.212245559692382812e+01,3.375105590820312500e+02,2.879580307006835938e+01
-9.866560935974121094e+00,3.415296936035156250e+02,2.297538757324218750e+01
-8.580155372619628906e+00,3.406358642578125000e+02,2.431040763854980469e+01
-1.126645278930664062e+01,3.419102172851562500e+02,1.970194625854492188e+01
-1.124148464202880859e+01,3.425603637695312500e+02,2.173394584655761719e+01
-1.360968303680419922e+01,3.427010803222656250e+02,1.656644821166992188e+01
-1.251964092254638672e+01,3.425749511718750000e+02,1.826946258544921875e+01
-1.499993896484375000e+01,3.428968811035156250e+02,1.500576496124267578e+01
-1.640660476684570312e+01,3.441513366699218750e+02,1.490408229827880859e+01
-1.920893478393554688e+01,3.444102783203125000e+02,1.270350456237792969e+01
-1.795659065246582031e+01,3.449690246582031250e+02,1.423441410064697266e+01
1.535825824737548828e+01,3.372131652832031250e+02,2.698064804077148438e+01
1.739552497863769531e+01,3.377601013183593750e+02,2.630979919433593750e+01
1.417681980133056641e+01,3.380754089355468750e+02,2.852473068237304688e+01
1.931290435791015625e+01,3.384515991210937500e+02,2.573279190063476562e+01
2.033869171142578125e+01,3.375228576660156250e+02,2.407412338256835938e+01
2.218305587768554688e+01,3.375989074707031250e+02,2.285872650146484375e+01
2.338352966308593750e+01,3.365774230957031250e+02,2.103301811218261719e+01
-2.138240051269531250e+01,3.405220947265625000e+02,-2.818023681640625000e+01
-2.320792198181152344e+01,3.410717468261718750e+02,-2.728065299987792969e+01
-2.505462074279785156e+01,3.397878723144531250e+02,-2.504351997375488281e+01
-2.489909362792968750e+01,3.418739624023437500e+02,-2.627175712585449219e+01
-2.698710441589355469e+01,3.390220642089843750e+02,-2.176879692077636719e+01
-2.666752624511718750e+01,3.401243286132812500e+02,-2.346780014038085938e+01
-2.826887702941894531e+01,3.394109497070312500e+02,-2.008286476135253906e+01
-2.940424919128417969e+01,3.398558044433593750e+02,-1.834494209289550781e+01
-3.027014350891113281e+01,3.397829589843750000e+02,-1.475582504272460938e+01
-3.040474510192871094e+01,3.406458740234375000e+02,-1.669625473022460938e+01
-3.094493865966796875e+01,3.405866699218750000e+02,-1.283075523376464844e+01
-3.147124099731445312e+01,3.414858703613281250e+02,-1.091312217712402344e+01
-3.184414100646972656e+01,3.425788574218750000e+02,-9.033385276794433594e+00
-3.042623710632324219e+01,3.423489685058593750e+02,-2.717492103576660156e+00
-3.132343101501464844e+01,3.429997863769531250e+02,-4.950020313262939453e+00
-3.214261627197265625e+01,3.437886352539062500e+02,-7.174260139465332031e+00
-3.019865417480468750e+01,3.439988403320312500e+02,8.496305346488952637e-01
-3.067059516906738281e+01,3.436655883789062500e+02,-1.096586942672729492e+00
-2.988041877746582031e+01,3.449553222656250000e+02,2.855387687683105469e+00
-2.554094314575195312e+01,3.438684082031250000e+02,7.705673694610595703e+00
-2.712577629089355469e+01,3.437248535156250000e+02,6.138882160186767578e+00
-2.872254562377929688e+01,3.451202392578125000e+02,5.026913166046142578e+00
3.106719779968261719e+01,3.399258117675781250e+02,-1.475803405046463013e-01
3.055622100830078125e+01,3.412175903320312500e+02,-1.764449000358581543e+00
2.986838912963867188e+01,3.428177490234375000e+02,-3.046747446060180664e+00
-7.363908767700195312e+00,3.434794006347656250e+02,-3.182607269287109375e+01
-9.510570526123046875e+00,3.444053039550781250e+02,-3.235175704956054688e+01
-1.104666042327880859e+01,3.431752014160156250e+02,-3.194344902038574219e+01
-1.238943576812744141e+01,3.418398742675781250e+02,-3.139002799987792969e+01
-1.429791164398193359e+01,3.427040710449218750e+02,-3.151051330566406250e+01
-1.594388675689697266e+01,3.431639404296875000e+02,-3.132357978820800781e+01
-1.692550659179687500e+01,3.417264709472656250e+02,-3.051403808593750000e+01
-1.874066734313964844e+01,3.418313903808593750e+02,-2.994826507568359375e+01
-2.062241935729980469e+01,3.421441955566406250e+02,-2.927963066101074219e+01
2.823879432678222656e+01,3.451804504394531250e+02,-5.951697826385498047e+00
2.731789779663085938e+01,3.460352783203125000e+02,-7.484960079193115234e+00
2.913079452514648438e+01,3.441505737304687500e+02,-4.355744361877441406e+00
2.457800674438476562e+01,3.477884216308593750e+02,-1.161312866210937500e+01
2.564839553833007812e+01,3.477902832031250000e+02,-9.835934638977050781e+00
2.205973434448242188e+01,3.489996643066406250e+02,-1.502931118011474609e+01
2.326796913146972656e+01,3.485014953613281250e+02,-1.342195320129394531e+01
2.658980369567871094e+01,3.480378417968750000e+02,-7.949742794036865234e+00
1.834843254089355469e+01,3.471601562500000000e+02,-1.957525062561035156e+01
1.674812316894531250e+01,3.473988342285156250e+02,-2.131051445007324219e+01
1.504842090606689453e+01,3.476971740722656250e+02,-2.301330566406250000e+01
1.360415935516357422e+01,3.462422485351562500e+02,-2.367614173889160156e+01
1.169997215270996094e+01,3.468327026367187500e+02,-2.519246864318847656e+01
2.074623107910156250e+01,3.491360168457031250e+02,-1.682108688354492188e+01
1.935733222961425781e+01,3.491640319824218750e+02,-1.856749916076660156e+01
-1.261317729949951172e-01,3.450742797851562500e+02,-3.068418312072753906e+01
-2.235106706619262695e+00,3.457996826171875000e+02,-3.158882713317871094e+01
9.733981132507324219e+00,3.470219116210937500e+02,-2.654543876647949219e+01
7.778905868530273438e+00,3.467709350585937500e+02,-2.765730667114257812e+01
5.523268222808837891e+00,3.470680236816406250e+02,-2.902276039123535156e+01
3.345757484436035156e+00,3.466142272949218750e+02,-2.989577865600585938e+01
1.182047009468078613e+00,3.464967346191406250e+02,-3.070269584655761719e+01
-5.851821899414062500e+00,3.448584594726562500e+02,-3.209865570068359375e+01
-4.444935321807861328e+00,3.463431091308593750e+02,-3.231215286254882812e+01
2.625167655944824219e+01,3.361654357910156250e+02,1.858770179748535156e+01
2.519414138793945312e+01,3.372077636718750000e+02,2.033655357360839844e+01
2.794551467895507812e+01,3.369223937988281250e+02,1.744034194946289062e+01
2.919446563720703125e+01,3.379152832031250000e+02,1.587549781799316406e+01
2.990599250793457031e+01,3.388758850097656250e+02,1.424640750885009766e+01
3.025777053833007812e+01,3.401189575195312500e+02,1.258104801177978516e+01
3.053321838378906250e+01,3.399305419921875000e+02,9.073262214660644531e+00
3.034447097778320312e+01,3.412845153808593750e+02,1.096294975280761719e+01
3.082824325561523438e+01,3.400254516601562500e+02,5.474057197570800781e+00
3.053032875061035156e+01,3.409846191406250000e+02,7.427972793579101562e+00
3.078892517089843750e+01,3.412889404296875000e+02,1.914848804473876953e+00
3.061351776123046875e+01,3.418301391601562500e+02,4.043993473052978516e+00
-2.242938423156738281e+01,3.450704345703125000e+02,1.102638530731201172e+01
-2.101405525207519531e+01,3.456497497558593750e+02,1.249188613891601562e+01
-2.393660736083984375e+01,3.444403381347656250e+02,9.397642135620117188e+00
-6.850423336029052734e+00,3.402133178710937500e+02,2.753829574584960938e+01
-8.581478118896484375e+00,3.411125793457031250e+02,2.641093254089355469e+01
-4.813526153564453125e+00,3.397458496093750000e+02,2.880391311645507812e+01
-2.339129924774169922e+00,3.391012268066406250e+02,2.932846641540527344e+01
-6.582305580377578735e-02,3.389292297363281250e+02,3.006697463989257812e+01
2.222033023834228516e+00,3.388754577636718750e+02,3.069101333618164062e+01
4.474870681762695312e+00,3.386820373535156250e+02,3.082856559753417969e+01
8.685956954956054688e+00,3.382011108398437500e+02,3.028039932250976562e+01
6.521821975708007812e+00,3.389902954101562500e+02,3.123706817626953125e+01
1.090716552734375000e+01,3.385954589843750000e+02,3.024625205993652344e+01
1.301633071899414062e+01,3.391049499511718750e+02,3.008809661865234375e+01
-1.115175151824951172e+01,3.429880371093750000e+02,2.394795227050781250e+01
-9.955009460449218750e+00,3.420734863281250000e+02,2.524874114990234375e+01
-1.270884323120117188e+01,3.435652465820312500e+02,2.041127967834472656e+01
-1.246725082397460938e+01,3.439766235351562500e+02,2.277927207946777344e+01
-1.507676982879638672e+01,3.442751464843750000e+02,1.679545402526855469e+01
-1.393076229095458984e+01,3.440704345703125000e+02,1.852317619323730469e+01
-1.661798286437988281e+01,3.455981750488281250e+02,1.663175201416015625e+01
-1.964495277404785156e+01,3.462445983886718750e+02,1.404966926574707031e+01
-1.813688850402832031e+01,3.464494934082031250e+02,1.578451728820800781e+01
1.631380653381347656e+01,3.388089904785156250e+02,2.807571792602539062e+01
1.830373764038085938e+01,3.394899902343750000e+02,2.745963096618652344e+01
1.506334686279296875e+01,3.396866455078125000e+02,2.965905380249023438e+01
2.031384277343750000e+01,3.401613159179687500e+02,2.670919036865234375e+01
2.139254951477050781e+01,3.390635986328125000e+02,2.488113021850585938e+01
2.320431327819824219e+01,3.394809265136718750e+02,2.396106529235839844e+01
2.413350296020507812e+01,3.383087768554687500e+02,2.215812873840332031e+01
-2.244874382019042969e+01,3.426476745605468750e+02,-2.847500801086425781e+01
-2.413786315917968750e+01,3.434107360839843750e+02,-2.757933998107910156e+01
-2.618393516540527344e+01,3.415311584472656250e+02,-2.483254241943359375e+01
-2.572105026245117188e+01,3.444130859375000000e+02,-2.651148605346679688e+01
-2.670020675659179688e+01,3.435045166015625000e+02,-2.506050491333007812e+01
-2.818638038635253906e+01,3.408002319335937500e+02,-2.191630935668945312e+01
-2.766316986083984375e+01,3.422564086914062500e+02,-2.346649932861328125e+01
-2.944620895385742188e+01,3.413242187500000000e+02,-2.024992370605468750e+01
-3.049366950988769531e+01,3.420390625000000000e+02,-1.854003334045410156e+01
-3.117190742492675781e+01,3.418763427734375000e+02,-1.486268520355224609e+01
-3.122407722473144531e+01,3.430285339355468750e+02,-1.673012733459472656e+01
-3.173889923095703125e+01,3.427317504882812500e+02,-1.296063518524169922e+01
-3.230488204956054688e+01,3.436154174804687500e+02,-1.108728790283203125e+01
-3.278865051269531250e+01,3.446595458984375000e+02,-9.252758979797363281e+00
-3.160049247741699219e+01,3.443972473144531250e+02,-3.143548727035522461e+00
-3.242326354980468750e+01,3.450140686035156250e+02,-5.406876087188720703e+00
-3.318077850341796875e+01,3.458833618164062500e+02,-7.516360759735107422e+00
-3.120281410217285156e+01,3.459191894531250000e+02,9.943147301673889160e-01
-3.170665359497070312e+01,3.456210632324218750e+02,-1.104389071464538574e+00
-2.994264984130859375e+01,3.468762512207031250e+02,4.040828704833984375e+00
-3.125583076477050781e+01,3.473553771972656250e+02,2.316053390502929688e+00
-2.726307487487792969e+01,3.455051574707031250e+02,6.940837860107421875e+00
-2.573356437683105469e+01,3.456984558105468750e+02,8.586914062500000000e+00
-2.851937675476074219e+01,3.470905761718750000e+02,5.891941070556640625e+00
3.056095314025878906e+01,3.419667663574218750e+02,4.768374189734458923e-02
2.998855400085449219e+01,3.436357116699218750e+02,-1.184723854064941406e+00
2.923913383483886719e+01,3.454927673339843750e+02,-2.357841491699218750e+00
-7.995645046234130859e+00,3.456224975585937500e+02,-3.264258575439453125e+01
-1.013206005096435547e+01,3.467132873535156250e+02,-3.312047195434570312e+01
-1.151658153533935547e+01,3.454395446777343750e+02,-3.270862579345703125e+01
-1.307199668884277344e+01,3.441730957031250000e+02,-3.220800018310546875e+01
-1.502942752838134766e+01,3.452343750000000000e+02,-3.220043945312500000e+01
-1.701589202880859375e+01,3.453796997070312500e+02,-3.173118591308593750e+01
-1.791745567321777344e+01,3.436614379882812500e+02,-3.092436027526855469e+01
-1.977351570129394531e+01,3.438187561035156250e+02,-3.029056549072265625e+01
-2.162335777282714844e+01,3.442235412597656250e+02,-2.957282066345214844e+01
2.848771476745605469e+01,3.464837341308593750e+02,-4.221097946166992188e+00
2.756647491455078125e+01,3.475700378417968750e+02,-6.047731399536132812e+00
2.477593231201171875e+01,3.499669189453125000e+02,-1.047939491271972656e+01
2.375840377807617188e+01,3.500599975585937500e+02,-1.218770790100097656e+01
2.574314880371093750e+01,3.499907836914062500e+02,-8.648400306701660156e+00
2.262587547302246094e+01,3.512438964843750000e+02,-1.363650798797607422e+01
2.138813400268554688e+01,3.512712402343750000e+02,-1.554667282104492188e+01
2.672514152526855469e+01,3.499339294433593750e+02,-6.535853862762451172e+00
1.787662506103515625e+01,3.493534851074218750e+02,-2.032476806640625000e+01
1.636581993103027344e+01,3.495402832031250000e+02,-2.206459045410156250e+01
1.475329399108886719e+01,3.497305603027343750e+02,-2.373243331909179688e+01
1.310771465301513672e+01,3.482764587402343750e+02,-2.472428512573242188e+01
1.107010650634765625e+01,3.487916259765625000e+02,-2.628472137451171875e+01
2.010156250000000000e+01,3.513585205078125000e+02,-1.742627334594726562e+01
1.875346565246582031e+01,3.514307250976562500e+02,-1.923500633239746094e+01
-7.959351539611816406e-01,3.474107971191406250e+02,-3.166844367980957031e+01
-3.260710716247558594e+00,3.479134521484375000e+02,-3.250947570800781250e+01
8.976607322692871094e+00,3.488298339843750000e+02,-2.761002731323242188e+01
7.100210189819335938e+00,3.485563049316406250e+02,-2.862985038757324219e+01
5.483988285064697266e+00,3.495280151367187500e+02,-2.970959472656250000e+01
3.739285707473754883e+00,3.487002563476562500e+02,-3.031124496459960938e+01
1.672277927398681641e+00,3.483103332519531250e+02,-3.106228446960449219e+01
-6.513472557067871094e+00,3.470861511230468750e+02,-3.290659713745117188e+01
-5.306280612945556641e+00,3.487705383300781250e+02,-3.317226409912109375e+01
2.702437210083007812e+01,3.377951354980468750e+02,1.933182525634765625e+01
2.599821281433105469e+01,3.387738342285156250e+02,2.116105461120605469e+01
2.858801269531250000e+01,3.387239990234375000e+02,1.783164024353027344e+01
2.953168296813964844e+01,3.401670227050781250e+02,1.623830604553222656e+01
3.003309631347656250e+01,3.409517517089843750e+02,1.440383529663085938e+01
3.022439384460449219e+01,3.425738525390625000e+02,1.293656444549560547e+01
3.027508926391601562e+01,3.423211059570312500e+02,9.175517082214355469e+00
3.014587402343750000e+01,3.435849914550781250e+02,1.094511508941650391e+01
3.046345710754394531e+01,3.421341552734375000e+02,5.888569355010986328e+00
3.014954757690429688e+01,3.434659423828125000e+02,7.494610786437988281e+00
3.034064102172851562e+01,3.434070129394531250e+02,2.998093366622924805e+00
3.023074150085449219e+01,3.436413269042968750e+02,1.024835824966430664e+00
3.012359428405761719e+01,3.441234436035156250e+02,5.413064002990722656e+00
-2.411948966979980469e+01,3.461359863281250000e+02,1.034221649169921875e+01
-2.259449958801269531e+01,3.471537475585937500e+02,1.218639087677001953e+01
-2.123002624511718750e+01,3.476627197265625000e+02,1.378404426574707031e+01
-8.587900161743164062e+00,3.416498718261718750e+02,2.836153411865234375e+01
-6.736281394958496094e+00,3.410492858886718750e+02,2.951243972778320312e+01
-1.022707271575927734e+01,3.426588134765625000e+02,2.729372978210449219e+01
-3.498500108718872070e+00,3.402940368652343750e+02,3.046958160400390625e+01
-5.172825336456298828e+00,3.411989746093750000e+02,3.100840187072753906e+01
-1.485088706016540527e+00,3.401557922363281250e+02,3.121510124206542969e+01
6.307339072227478027e-01,3.400385437011718750e+02,3.176689910888671875e+01
2.824146032333374023e+00,3.400640563964843750e+02,3.224702072143554688e+01
4.860586166381835938e+00,3.400976257324218750e+02,3.243800354003906250e+01
8.263907432556152344e+00,3.396035461425781250e+02,3.171642494201660156e+01
1.008920574188232422e+01,3.398483581542968750e+02,3.163117218017578125e+01
6.820016384124755859e+00,3.405718994140625000e+02,3.280536270141601562e+01
1.199754810333251953e+01,3.402609252929687500e+02,3.153149986267089844e+01
1.395630645751953125e+01,3.408410949707031250e+02,3.124179649353027344e+01
-1.142713356018066406e+01,3.435623168945312500e+02,2.605547332763671875e+01
-1.260998535156250000e+01,3.445131225585937500e+02,2.481476020812988281e+01
-1.445953369140625000e+01,3.451344909667968750e+02,2.026601409912109375e+01
-1.375448513031005859e+01,3.449336547851562500e+02,2.189624786376953125e+01
-1.399622249603271484e+01,3.456194763183593750e+02,2.383111763000488281e+01
-1.559764194488525391e+01,3.456468200683593750e+02,1.859771728515625000e+01
-1.712502288818359375e+01,3.470422058105468750e+02,1.828477668762207031e+01
-1.977346611022949219e+01,3.478723449707031250e+02,1.549558353424072266e+01
-1.850240516662597656e+01,3.479177856445312500e+02,1.725412368774414062e+01
1.719411659240722656e+01,3.405703125000000000e+02,2.913330650329589844e+01
1.913704872131347656e+01,3.413202209472656250e+02,2.846340179443359375e+01
1.587954330444335938e+01,3.414079589843750000e+02,3.058786392211914062e+01
2.109513473510742188e+01,3.419791259765625000e+02,2.764701843261718750e+01
2.229069900512695312e+01,3.407941894531250000e+02,2.585433197021484375e+01
2.412144279479980469e+01,3.412455444335937500e+02,2.488211822509765625e+01
2.502891921997070312e+01,3.399684753417968750e+02,2.304545974731445312e+01
-2.331334114074707031e+01,3.449664916992187500e+02,-2.882179832458496094e+01
-2.493171691894531250e+01,3.458137512207031250e+02,-2.787338829040527344e+01
-2.641902923583984375e+01,3.468748168945312500e+02,-2.682844352722167969e+01
-2.729777145385742188e+01,3.456480102539062500e+02,-2.518660926818847656e+01
-2.823728942871093750e+01,3.445740051269531250e+02,-2.356938362121582031e+01
-2.900867462158203125e+01,3.430160827636718750e+02,-2.192407035827636719e+01
-3.020118713378906250e+01,3.436402893066406250e+02,-2.027244949340820312e+01
-3.118358802795410156e+01,3.444524230957031250e+02,-1.851302909851074219e+01
-3.179240417480468750e+01,3.441629943847656250e+02,-1.488057899475097656e+01
-3.184783744812011719e+01,3.454379577636718750e+02,-1.672908210754394531e+01
-3.241564559936523438e+01,3.449494628906250000e+02,-1.304180526733398438e+01
-3.313076019287109375e+01,3.456735534667968750e+02,-1.125370883941650391e+01
-3.374783325195312500e+01,3.467541503906250000e+02,-9.532635688781738281e+00
-3.263674545288085938e+01,3.462460327148437500e+02,-3.611720561981201172e+00
-3.348114395141601562e+01,3.470830688476562500e+02,-5.863435745239257812e+00
-3.422119522094726562e+01,3.480258483886718750e+02,-8.149787902832031250e+00
-3.243398666381835938e+01,3.478490600585937500e+02,1.339745968580245972e-01
-3.275249862670898438e+01,3.473448486328125000e+02,-1.863488912582397461e+00
-3.084322738647460938e+01,3.492248535156250000e+02,3.460112571716308594e+00
-2.945325469970703125e+01,3.489013671875000000e+02,4.977560997009277344e+00
-3.220250701904296875e+01,3.494675598144531250e+02,1.647683143615722656e+00
-2.707136917114257812e+01,3.475179748535156250e+02,7.564157485961914062e+00
-2.557161521911621094e+01,3.476133117675781250e+02,9.212457656860351562e+00
-2.800888824462890625e+01,3.492841796875000000e+02,6.417588710784912109e+00
2.962792968750000000e+01,3.455659484863281250e+02,-1.138015836477279663e-01
2.898615264892578125e+01,3.475228271484375000e+02,-7.374413013458251953e-01
2.847163009643554688e+01,3.479848022460937500e+02,-2.638684749603271484e+00
-8.610477447509765625e+00,3.476981811523437500e+02,-3.332498931884765625e+01
-1.019785690307617188e+01,3.491824340820312500e+02,-3.380917739868164062e+01
-1.197543239593505859e+01,3.479093017578125000e+02,-3.343200302124023438e+01
-1.332876491546630859e+01,3.465268249511718750e+02,-3.288668441772460938e+01
-1.501596069335937500e+01,3.475703125000000000e+02,-3.287350463867187500e+01
-1.668951988220214844e+01,3.473558044433593750e+02,-3.238513183593750000e+01
-1.895657920837402344e+01,3.456417236328125000e+02,-3.117111778259277344e+01
-1.845051574707031250e+01,3.475924682617187500e+02,-3.188761901855468750e+01
-2.082226181030273438e+01,3.459105224609375000e+02,-3.048998832702636719e+01
-2.241001129150390625e+01,3.465851745605468750e+02,-2.991593360900878906e+01
2.776757049560546875e+01,3.488062744140625000e+02,-4.506427288055419922e+00
2.370055961608886719e+01,3.521565551757812500e+02,-1.148064613342285156e+01
2.469476509094238281e+01,3.521247558593750000e+02,-9.628191947937011719e+00
2.568238830566406250e+01,3.519466857910156250e+02,-7.677870273590087891e+00
2.167111968994140625e+01,3.534721069335937500e+02,-1.441067504882812500e+01
2.270457458496093750e+01,3.536596069335937500e+02,-1.258632087707519531e+01
2.053880691528320312e+01,3.534857177734375000e+02,-1.627315902709960938e+01
2.628395271301269531e+01,3.524504699707031250e+02,-5.780285835266113281e+00
2.712027549743652344e+01,3.509525451660156250e+02,-4.675179004669189453e+00
1.735739135742187500e+01,3.515468139648437500e+02,-2.099941444396972656e+01
1.585690021514892578e+01,3.517352600097656250e+02,-2.273551940917968750e+01
1.424055099487304688e+01,3.520837402343750000e+02,-2.437840652465820312e+01
1.310535430908203125e+01,3.503326416015625000e+02,-2.520402526855468750e+01
9.551294326782226562e+00,3.508065490722656250e+02,-2.771673393249511719e+01
1.141959953308105469e+01,3.507792358398437500e+02,-2.650465202331542969e+01
1.935768508911132812e+01,3.535477294921875000e+02,-1.812190628051757812e+01
1.807014274597167969e+01,3.535986633300781250e+02,-1.993989562988281250e+01
-1.002592071890830994e-01,3.495498352050781250e+02,-3.201059341430664062e+01
-2.141989231109619141e+00,3.492963256835937500e+02,-3.257910537719726562e+01
-4.114944458007812500e+00,3.505954895019531250e+02,-3.335082244873046875e+01
7.490421772003173828e+00,3.507553405761718750e+02,-2.892449188232421875e+01
3.679272651672363281e+00,3.510325622558593750e+02,-3.085971641540527344e+01
5.506521224975585938e+00,3.515908813476562500e+02,-3.011230850219726562e+01
1.896984338760375977e+00,3.504069213867187500e+02,-3.146627616882324219e+01
-7.597062110900878906e+00,3.492186889648437500e+02,-3.361858749389648438e+01
-6.448261737823486328e+00,3.508773193359375000e+02,-3.383933258056640625e+01
2.777751159667968750e+01,3.394230346679687500e+02,1.989088058471679688e+01
2.673795127868652344e+01,3.402952575683593750e+02,2.187114906311035156e+01
2.892416191101074219e+01,3.405982360839843750e+02,1.835358810424804688e+01
2.999864387512207031e+01,3.426932983398437500e+02,1.519090747833251953e+01
2.957104110717773438e+01,3.422723693847656250e+02,1.713301467895507812e+01
3.008492088317871094e+01,3.446567077636718750e+02,1.438373851776123047e+01
3.008395767211914062e+01,3.448397216796875000e+02,1.254077148437500000e+01
2.989514923095703125e+01,3.448085632324218750e+02,9.273627281188964844e+00
2.978003311157226562e+01,3.461823730468750000e+02,1.104272556304931641e+01
2.973400878906250000e+01,3.456839904785156250e+02,7.361036777496337891e+00
2.996181869506835938e+01,3.452706298828125000e+02,3.872686862945556641e+00
2.987654876708984375e+01,3.455133361816406250e+02,1.972713232040405273e+00
2.963476753234863281e+01,3.465542297363281250e+02,5.564855098724365234e+00
-2.411522293090820312e+01,3.478835449218750000e+02,1.085532855987548828e+01
-2.336556243896484375e+01,3.494108276367187500e+02,1.170009994506835938e+01
-2.216672134399414062e+01,3.495115966796875000e+02,1.332793331146240234e+01
-2.095839118957519531e+01,3.495859375000000000e+02,1.512118625640869141e+01
-1.018133163452148438e+01,3.430578308105468750e+02,2.919022369384765625e+01
-8.544782638549804688e+00,3.423734741210937500e+02,3.036697769165039062e+01
-6.863445758819580078e+00,3.422319946289062500e+02,3.167635726928710938e+01
-1.184824180603027344e+01,3.442754211425781250e+02,2.819559097290039062e+01
-3.115626573562622070e+00,3.413098144531250000e+02,3.230223083496093750e+01
-4.873061656951904297e+00,3.422734680175781250e+02,3.300872039794921875e+01
-9.683572649955749512e-01,3.412238464355468750e+02,3.299134063720703125e+01
1.198312044143676758e+00,3.411539001464843750e+02,3.343544769287109375e+01
3.402367591857910156e+00,3.412333984375000000e+02,3.380779266357421875e+01
5.420041084289550781e+00,3.415504150390625000e+02,3.400839614868164062e+01
8.856866836547851562e+00,3.411772766113281250e+02,3.299190902709960938e+01
1.082832527160644531e+01,3.415927124023437500e+02,3.286697006225585938e+01
7.398571014404296875e+00,3.422702941894531250e+02,3.413292312622070312e+01
1.273334598541259766e+01,3.420886535644531250e+02,3.267341613769531250e+01
1.451894474029541016e+01,3.428125915527343750e+02,3.226218414306640625e+01
-1.278494358062744141e+01,3.450194702148437500e+02,2.691057777404785156e+01
-1.390263462066650391e+01,3.459738769531250000e+02,2.574118995666503906e+01
-1.520316314697265625e+01,3.464043884277343750e+02,2.247249603271484375e+01
-1.590335655212402344e+01,3.465931396484375000e+02,2.056187248229980469e+01
-1.547293949127197266e+01,3.472663574218750000e+02,2.458415222167968750e+01
-1.855273246765136719e+01,3.491456298828125000e+02,1.904377365112304688e+01
-1.719972610473632812e+01,3.478845520019531250e+02,2.019103431701660156e+01
-1.973742675781250000e+01,3.494991455078125000e+02,1.705402374267578125e+01
1.788673019409179688e+01,3.426062011718750000e+02,3.010262107849121094e+01
1.989521026611328125e+01,3.432679748535156250e+02,2.922102737426757812e+01
1.613922500610351562e+01,3.431458129882812500e+02,3.148916435241699219e+01
2.180609512329101562e+01,3.439594116210937500e+02,2.840055084228515625e+01
2.293340682983398438e+01,3.426143493652343750e+02,2.681759834289550781e+01
2.457914924621582031e+01,3.429828796386718750e+02,2.584707832336425781e+01
2.587196922302246094e+01,3.416224365234375000e+02,2.378007125854492188e+01
-2.419580268859863281e+01,3.472688293457031250e+02,-2.905957603454589844e+01
-2.580405998229980469e+01,3.482829284667968750e+02,-2.820096206665039062e+01
-2.780027198791503906e+01,3.476362915039062500e+02,-2.556118011474609375e+01
-2.751594734191894531e+01,3.493065795898437500e+02,-2.693195343017578125e+01
-2.892504882812500000e+01,3.469342651367187500e+02,-2.373032188415527344e+01
-2.958993339538574219e+01,3.453274841308593750e+02,-2.200776290893554688e+01
-3.084284019470214844e+01,3.459434814453125000e+02,-2.024470138549804688e+01
-3.190481758117675781e+01,3.467937011718750000e+02,-1.845324516296386719e+01
-3.255535125732421875e+01,3.463674926757812500e+02,-1.493761539459228516e+01
-3.283312225341796875e+01,3.475826110839843750e+02,-1.664055824279785156e+01
-3.335512161254882812e+01,3.469657592773437500e+02,-1.317041206359863281e+01
-3.404243469238281250e+01,3.475643615722656250e+02,-1.138488483428955078e+01
-3.481545257568359375e+01,3.490146484375000000e+02,-1.046801948547363281e+01
-3.363855743408203125e+01,3.482128601074218750e+02,-4.082007408142089844e+00
-3.439098739624023438e+01,3.490902099609375000e+02,-6.340851306915283203e+00
