-1.012977716183739929e+01,5.305156988414164232e+01,-7.988781107825555061e+00
-9.317197141181136288e+00,5.156501953514049319e+01,-9.441739428295361947e+00
-8.081274921726702587e+00,5.236044521411013619e+01,-1.053586469980539064e+01
-6.432544619255551765e+00,5.311877337051966208e+01,-1.126618771562891830e+01
-5.098359569164173877e+00,5.145768826523310224e+01,-1.174401672404590258e+01
-3.235982370234822270e+00,5.214686576996282952e+01,-1.190403776237455169e+01
-1.506631385584732641e+00,5.115141799586152160e+01,-1.203807960490375351e+01
2.418912290424373168e-01,5.237680815706703186e+01,-1.181034209489619613e+01
2.433113847103186345e+00,5.147038352161065689e+01,-1.163076151132347036e+01
-8.574272152094664534e+00,1.915586342067053067e+02,-1.006009687684282738e+01
1.084646773732180236e+01,1.859457062632215241e+02,-1.015158903935504497e+01
9.180068802588507992e+00,1.873394928410539251e+02,-1.092683809337871992e+01
1.539424556412345169e+01,1.752283551111998179e+02,2.308634742765176995e+00
1.334382836556744678e+01,1.747044936005790703e+02,3.579507152703076400e+00
1.801176854115161063e+01,1.779885949252772832e+02,3.824072617238947203e-01
1.933137068764439448e+01,1.788583670717265193e+02,-1.051548167283435475e+00
1.613909175857516232e+01,1.773438217814038751e+02,1.760359043747033780e+00
1.970676667791866521e+01,1.799661416427979930e+02,-2.633904482112235712e+00
1.927057331229283932e+01,1.812042545606274473e+02,-4.039220094784084836e+00
1.709060776201167187e+01,1.858007963158578093e+02,-6.686081587290019002e+00
1.562971168544225975e+01,1.866570799679251991e+02,-7.733644226847005143e+00
1.834652606041376544e+01,1.848017786322986069e+02,-5.579464896737789559e+00
1.938501905667713743e+01,1.838260472558275467e+02,-4.307815545440440985e+00
1.247915963090669322e+01,1.868325250568333900e+02,-9.468463947151121829e+00
1.403106945554512208e+01,1.876359606478748105e+02,-8.724202938946454822e+00
2.337771804663233866e+00,1.894796531361457141e+02,-1.306696019246237483e+01
-1.702461762662252909e+00,1.896132424286753348e+02,-1.337733047464647740e+01
2.013515394448006646e-01,1.907600444666996111e+02,-1.339650546502713979e+01
-3.664727428115682528e+00,1.905464104313225278e+02,-1.317942829133854588e+01
4.244089758416379254e+00,1.895770947354063196e+02,-1.266156518893232885e+01
-5.052872810523851399e+00,1.924241696040368765e+02,-1.284154991009481250e+01
-7.102738579853237866e+00,1.921595072999926117e+02,-1.167944214720223783e+01
7.584637921332330279e+00,1.888508357170463512e+02,-1.159790202651284119e+01
6.018677002450189661e+00,1.903833554925932390e+02,-1.220611849521836234e+01
-1.003495655594780089e+01,1.872420167409288467e+02,1.484822275167235972e+00
-9.327154981105735487e+00,1.873368095806219173e+02,3.253474176701217857e+00
-1.042957367138568259e+01,1.883092860105662396e+02,-2.451946754813505436e-02
-1.062589638083713339e+01,1.897441340329640411e+02,-1.246960820402431835e+00
-1.066013948966963198e+01,1.898548236015936368e+02,-2.892127160109090767e+00
-1.049796486968439524e+01,1.908944803184955390e+02,-4.758948726624211645e+00
-8.419560489621929378e+00,1.861391767438152840e+02,4.876518257320665128e+00
-1.009958607949785403e+01,1.921844305295411175e+02,-6.698711557876393385e+00
-9.401764546199729011e+00,1.933822643583240790e+02,-8.654010581716612194e+00
-4.271994712766257862e+00,1.839364705828569413e+02,8.715907558723486659e+00
-2.071511365598766474e+00,1.846720834249781831e+02,9.343520662772188956e+00
-7.774462139545192940e-01,1.828610930375888586e+02,9.266981615830701458e+00
8.666837836102416759e-01,1.808800265296377461e+02,8.921846688752680166e+00
-7.194287488704901534e+00,1.860038060559665780e+02,6.460564201730452538e+00
-5.613640712861993620e+00,1.857827808671006835e+02,7.865256591856685020e+00
5.130118363985403107e+00,1.798488474773372161e+02,7.405002992923840566e+00
3.145910330684429823e+00,1.814983681769551822e+02,8.147626819120510788e+00
1.202004230442322807e+01,1.765893082911107683e+02,4.304181448103470586e+00
1.076691438317435257e+01,1.784930118195234172e+02,4.926897225075592246e+00
7.594191731860917116e+00,1.798615995563592094e+02,6.377348216898489852e+00
9.655187794295073900e+00,1.804125162131127524e+02,5.433003919540556836e+00
5.206219252806761233e+00,5.143489942063605014e+01,-1.097731509680571449e+01
7.471345050628940498e+00,5.070496606603816758e+01,-1.024679903898305966e+01
8.681278906871710888e+00,6.256753263156451794e+01,7.042752740076313245e+00
9.598967525007083168e+00,6.102379775404176598e+01,6.042658654399033935e+00
1.152655878822359625e+01,5.930110760686971361e+01,3.266110666705969834e+00
1.034322150584927158e+01,5.945025153152342057e+01,5.164102747508074742e+00
1.244647039390488175e+01,5.832597418532665046e+01,1.239710784471910188e+00
1.292498262691994171e+01,5.722522084186104507e+01,-7.414752355198857003e-01
1.296672781235233174e+01,5.593186928725476292e+01,-2.779129909264451470e+00
1.263695064370484999e+01,5.418787366095160962e+01,-4.733952693837718328e+00
1.065925242242430215e+01,5.166960833778335171e+01,-8.168157944564523376e+00
1.216048575285213218e+01,5.220965662404631047e+01,-6.189221064228377145e+00
9.439844123742624049e+00,4.997887526395746960e+01,-9.340810314044386331e+00
-1.000104505352594941e+01,5.028251193262940433e+01,1.553498165217719773e+00
-5.319641339089461241e+00,5.128878023434937461e+01,9.085051402188105030e+00
-3.929080505823563385e+00,5.289676793397828192e+01,1.040371588687022886e+01
-6.697754046511512627e+00,4.980092391383658423e+01,7.476804585450261165e+00
-2.612296433729849099e+00,5.456392376900083008e+01,1.130414406355051860e+01
-8.311977529930970832e+00,4.887722224614851996e+01,5.145468956858874954e+00
-9.172418616790011470e+00,5.011435103988289086e+01,3.594273174126635162e+00
-1.149091608957956367e+00,5.607236868336545399e+01,1.168811470587998258e+01
5.817518409672757684e+00,6.139496835283801346e+01,9.516792358664950768e+00
4.049550415817876114e+00,6.021404620952256437e+01,1.051024787345524913e+01
2.350992624767325623e+00,5.856049230493184155e+01,1.115189539492557635e+01
5.711367297072627025e-01,5.721911302690427448e+01,1.154534920835735790e+01
7.357471013234999191e+00,6.193702307254204698e+01,8.350299462619453550e+00
-1.039515652168674364e+01,4.852018967123897397e+01,1.946620006733290609e-02
-1.077042386270805352e+01,4.977223701769820963e+01,-2.107553488438657752e+00
-1.086025548114617933e+01,5.092125233547777441e+01,-4.223467090111842737e+00
-1.064573843431185018e+01,4.962402300337713257e+01,-6.053788452113186835e+00
-1.015609600982058858e+01,5.054844664169126389e+01,-7.914440875869605208e+00
-9.455033571522207581e+00,4.907571709169178575e+01,-9.315475574165306583e+00
-8.297981647376929004e+00,4.986818039021147086e+01,-1.050036100047137921e+01
-6.857419409416209533e+00,5.069463766580180675e+01,-1.129672341879157216e+01
-5.257131841293833929e+00,4.896075962274405668e+01,-1.193407438574560508e+01
-3.375565959753352274e+00,4.972810307178466616e+01,-1.213486943918178262e+01
-1.604617255399972464e+00,4.864670506600588595e+01,-1.231256002981738362e+01
3.200588653665974448e-01,5.004675010003213487e+01,-1.206975709523941376e+01
3.854335728803526706e+00,4.980075004707993713e+01,-1.156124872322293129e+01
2.013323961199326106e+00,4.882332536028821579e+01,-1.201879356570926305e+01
-8.321812793282575171e+00,1.941967777955068470e+02,-1.046140043479510950e+01
1.082824335455144649e+01,1.883913887987621649e+02,-1.031506231726556422e+01
9.362977215169877354e+00,1.898859135258214792e+02,-1.099959863113901548e+01
1.405176932189739603e+01,1.768798105194703965e+02,3.129029100861616897e+00
1.678994121032013709e+01,1.795931327258642796e+02,1.245036258417126618e+00
1.831178392969212609e+01,1.805139900615670285e+02,3.526467010353151466e-02
1.948365862410702221e+01,1.815871619962083230e+02,-1.367437649865635763e+00
1.484148894275756447e+01,1.789551752379652498e+02,2.557133607564185951e+00
1.984768934108437577e+01,1.827967189986034953e+02,-2.891302060596807166e+00
1.827561152374045150e+01,1.874164932657713507e+02,-5.883461883558837258e+00
1.687061780775792386e+01,1.882125772668106833e+02,-7.037744599084000185e+00
1.536943902233048220e+01,1.890034866556906366e+02,-8.065259156045854638e+00
1.928727093964033656e+01,1.863093310452916853e+02,-4.743634995652570296e+00
1.999801315420208425e+01,1.855959710004725025e+02,-3.056940049428913397e+00
1.238738265392177595e+01,1.892419668272408728e+02,-9.670686278623122689e+00
1.382967840865826759e+01,1.898748296131977611e+02,-8.982193634730776921e+00
4.064501082806103227e+00,1.918020007793908519e+02,-1.281720185882284113e+01
2.089736227799221524e+00,1.919905077000331062e+02,-1.325602193215453894e+01
-2.405770779744429433e+00,1.923923061112607797e+02,-1.345943246430566376e+01
-3.235634152467099511e-01,1.930802397001089332e+02,-1.355827363635462035e+01
-4.270238962542265426e+00,1.946052994713747069e+02,-1.319398845862293257e+01
-6.589813643580001212e+00,1.944777537843523305e+02,-1.212039732261826686e+01
7.866371002454769723e+00,1.913322816428011777e+02,-1.164591952401458741e+01
6.176126084818250206e+00,1.926161927100195896e+02,-1.227613243616112015e+01
-9.943745620455388234e+00,1.896453667935115561e+02,1.863459483906819258e+00
-9.173606916399123179e+00,1.900013959590430375e+02,3.637058543956037227e+00
-8.228846138302898794e+00,1.884651587642438528e+02,5.165726328476278439e+00
-1.039971131497368617e+01,1.910095825246140180e+02,4.361005919438021294e-01
-1.071058312384428746e+01,1.920208870053090777e+02,-1.326475388029837887e+00
-1.074090097651473741e+01,1.924305641423528357e+02,-3.120756939870979352e+00
-1.056482379248326708e+01,1.935238922294796282e+02,-5.029246548364241676e+00
-1.007901684777144169e+01,1.948155516484427210e+02,-7.050269713561931439e+00
-9.358879477800215341e+00,1.961400633301663845e+02,-8.862351767201708697e+00
-3.600798694346281081e+00,1.863351065262321526e+02,8.958919860391780787e+00
-1.434355218796255826e+00,1.868237960565585070e+02,9.273882390421189115e+00
2.807297631422045470e-01,1.851490442175789610e+02,9.046612035222686643e+00
1.217687969364845912e+00,1.829900634376681978e+02,8.789582192799194615e+00
-6.811033444215354393e+00,1.882565780123745469e+02,6.835526373649898346e+00
-5.002775226891614579e+00,1.879177975158850415e+02,8.242605349754079214e+00
6.659558997351510357e+00,1.819246157860049493e+02,6.781971172370038659e+00
4.857483353483871724e+00,1.828595260640616686e+02,7.501296858247489041e+00
2.848514966863731956e+00,1.841516124202095170e+02,8.256672530572807034e+00
1.280632368320250691e+01,1.788288181320853028e+02,3.797623207375632859e+00
1.166677828125597216e+01,1.807971445055136144e+02,4.349541595244492243e+00
8.673804791781421386e+00,1.825126026203483889e+02,5.851742224423482241e+00
1.077806892654373883e+01,1.828144767196199325e+02,4.759743527179946199e+00
6.011656672715901095e+00,4.907151409888352589e+01,-1.105212932724418451e+01
8.049841834379186878e+00,4.825413007937520860e+01,-1.036053878530998418e+01
8.301500413675299228e+00,6.030518518036777209e+01,7.505451378965556586e+00
9.060288274567227518e+00,5.853427734770981061e+01,6.773294593507696248e+00
1.185529572651601882e+01,5.686892707111401535e+01,2.810067703720193322e+00
1.083331130693493094e+01,5.757495562478374040e+01,4.582758728799699810e+00
9.679720468205175621e+00,5.668758691498409519e+01,6.170997864829971036e+00
1.261409853630482303e+01,5.576190948992875462e+01,9.391364879993737702e-01
1.300498230045833736e+01,5.481347963854236838e+01,-1.054852146540575575e+00
1.304241174227583855e+01,5.358623533331835631e+01,-2.981515889408491660e+00
1.284456412682276039e+01,5.168573614028075269e+01,-4.545010560369370012e+00
1.169655879114731789e+01,5.032293123131659485e+01,-7.261288909425488214e+00
1.082599753603468429e+01,4.888746613918532091e+01,-8.455764307939901414e+00
1.257907308444399774e+01,4.969478037153255912e+01,-5.741967706918213565e+00
9.744538290091554700e+00,4.730610950264545522e+01,-9.565395207181190074e+00
-9.460052928660886096e+00,4.791875738213905578e+01,2.801019176223666918e+00
-4.970306480502074464e+00,4.895591967159446511e+01,9.353817833126846892e+00
-3.660986847204117822e+00,5.053328059480050882e+01,1.051155566231494731e+01
-2.317231532924424187e+00,5.213509759957940304e+01,1.131325785229978997e+01
-7.308701691343976847e+00,4.769478880625707262e+01,6.552403195830253324e+00
-5.977187352926435437e+00,4.718029180149724766e+01,8.191269107678360584e+00
-8.921910750554289393e-01,5.359849645265052231e+01,1.162971238483027925e+01
-8.490924031044585263e+00,4.649778294819465430e+01,4.669999304831175202e+00
8.613041877085194642e-01,5.475328190310624876e+01,1.153152070688740061e+01
6.939173499335979045e+00,5.965675526359839154e+01,8.748366068907705184e+00
5.516258647112593394e+00,5.922481259242624674e+01,9.758895692367268282e+00
4.228094066638497850e+00,5.766611602994872499e+01,1.048833396223805181e+01
2.582405970820421004e+00,5.608017873455327873e+01,1.115946941458866526e+01
-9.988774638263421934e+00,4.646061259840348612e+01,1.265155672677364507e+00
-1.069086645383488587e+01,4.724260050573590775e+01,-1.857551970655357820e+00
-1.037941333995543758e+01,4.541663816230629891e+01,-3.173394726136393729e-01
-1.079661440258929872e+01,4.852368368439286428e+01,-3.991395945029918124e+00
-1.060073528416010546e+01,4.728076852573036604e+01,-5.818147082735086073e+00
-1.021589136129467512e+01,4.796235646046875445e+01,-7.709062293525231979e+00
-8.501249689427222478e+00,4.740090265987655727e+01,-1.048070599911607559e+01
-9.538203856926301683e+00,4.651447821218069834e+01,-9.228340190480331273e+00
-6.988303467532873015e+00,4.838106460579034973e+01,-1.140283967254757513e+01
-5.395624604734607033e+00,4.661185525732525292e+01,-1.210916915058897914e+01
-3.546584584102497217e+00,4.722458242611059376e+01,-1.236357509743833205e+01
1.574029988241321121e-01,4.754175218560273208e+01,-1.237894797772866085e+01
-1.662912174827674505e+00,4.621170844007522760e+01,-1.258787696970673764e+01
4.148863124575960626e+00,4.758774770176059832e+01,-1.178765018196968484e+01
2.151823353024070684e+00,4.638053780702834672e+01,-1.233236210031228453e+01
-7.920740867502388483e+00,1.964122650306514686e+02,-1.097110723616685135e+01
1.108543033349373275e+01,1.910125826185397955e+02,-1.037509198401544097e+01
9.680638242228639001e+00,1.923841725991888154e+02,-1.105083464432070883e+01
1.548118720338867149e+01,1.810755778169297798e+02,2.070777463461507040e+00
1.691938227874491929e+01,1.821814394533743382e+02,1.050768244755593273e+00
1.843278295580421400e+01,1.830653282402524553e+02,-1.149250422908885128e-01
1.956199851816930391e+01,1.842787833151012080e+02,-1.426286279707323246e+00
1.361420818799042820e+01,1.810443401092396130e+02,3.235156286378970236e+00
1.924569331246678416e+01,1.892244852517696643e+02,-5.119105715489432384e+00
1.792390482047049716e+01,1.898324045129897684e+02,-6.394260636925388042e+00
1.642514618519487613e+01,1.906360508852935993e+02,-7.517510224467464752e+00
1.480333171016084748e+01,1.914492219908030108e+02,-8.570411029837138983e+00
1.992489406475193903e+01,1.878499427998773967e+02,-3.852189372009029000e+00
1.939194711924297110e+01,1.867608324016108554e+02,-1.264384975523531907e+00
1.992167115908540609e+01,1.885241739943031405e+02,-2.247116295512668671e+00
1.278302378644153237e+01,1.917090104012362417e+02,-9.648068519854000158e+00
3.232092298496198168e+00,1.942510196947679333e+02,-1.316652695826556396e+01
4.840225032145511364e+00,1.940099661068890953e+02,-1.274634687876817907e+01
1.402691002054424985e+00,1.943229769321986282e+02,-1.347282053611694153e+01
-2.017640168186218830e+00,1.949840863456875582e+02,-1.362408427721517512e+01
8.856906569794631423e-02,1.958801769603411174e+02,-1.370131409613094320e+01
-6.040764867078664224e+00,1.966798348701939574e+02,-1.247424620126407291e+01
-3.757443964512575008e+00,1.969626408883329418e+02,-1.339772035149908191e+01
7.945210564826609811e+00,1.936711765805720233e+02,-1.177129060010205563e+01
6.372319713085815351e+00,1.951169435723074059e+02,-1.236957216436078966e+01
-9.860779411174192433e+00,1.923785995198536511e+02,2.201649058518871271e+00
-8.895225475174711960e+00,1.921034729447699192e+02,4.121979707434789475e+00
-7.734018777367055009e+00,1.907643115627410282e+02,5.790516221145633580e+00
-1.048484358832705254e+01,1.934825493023497245e+02,3.911497358913607059e-01
-1.081289969146257590e+01,1.942926026126527290e+02,-1.435052414491618578e+00
-1.084558762598972237e+01,1.948767227299308900e+02,-3.283292239165973569e+00
-1.061797616102697361e+01,1.960388844412748881e+02,-5.325131279000864026e+00
-1.021488883688031990e+01,1.974020107244699318e+02,-6.958170007403779778e+00
-8.746933579969564221e+00,1.983277156036264444e+02,-9.908743296599375583e+00
-9.703735657975528284e+00,1.988272577539128747e+02,-8.294490581488567216e+00
-2.494249597570473043e+00,1.886251882183680380e+02,9.148643285498057054e+00
4.238709736027743702e-01,1.875621290007032087e+02,8.980937417446877902e+00
-4.890367460214974926e-01,1.898708500506877215e+02,9.164283107418288665e+00
2.440233223059493639e+00,1.863899977934666197e+02,8.397798747321381541e+00
-6.056871932850981466e+00,1.902328909803950125e+02,7.454228067047289130e+00
-4.070776784018036665e+00,1.898207207885671437e+02,8.672555510590303385e+00
7.201502920152677234e+00,1.844639617751651599e+02,6.485340482537147011e+00
4.896798378812263763e+00,1.852933006420647075e+02,7.443916481651680073e+00
1.283674585952987002e+01,1.831661032789279773e+02,3.570575387492429087e+00
9.643269673307358403e+00,1.847185957687539144e+02,5.292672320015253007e+00
1.188411898570289793e+01,1.850726799078304623e+02,4.072135288406578013e+00
6.404293944479285017e+00,4.669163671592147580e+01,-1.129000292512573012e+01
8.414658644879466465e+00,4.570473134026595119e+01,-1.060148101773010509e+01
7.720551622835671424e+00,5.784637371116844662e+01,8.155941212187675760e+00
8.419082758069230010e+00,5.576145478927507071e+01,7.583446195992992855e+00
1.178647646545864802e+01,5.449550318915964908e+01,3.077651690279257224e+00
1.082115537291007001e+01,5.538438976412750492e+01,4.713160341082449634e+00
9.704716509417593784e+00,5.424786035726042854e+01,6.311095059673675678e+00
1.255198124258730275e+01,5.348224648301454920e+01,1.248195134991025412e+00
1.301456267496860164e+01,5.267919891885640737e+01,-7.154818633282253870e-01
1.315312141677313207e+01,5.145251674746217674e+01,-2.651520049484606290e+00
1.315296075627614414e+01,4.920733820698207950e+01,-3.778584108316723089e+00
1.197518635151907063e+01,4.798972455514797986e+01,-7.209998798638936890e+00
1.114958303557042996e+01,4.640298778709948380e+01,-8.531540784338329075e+00
1.283464450890361519e+01,4.737805124739628582e+01,-5.572607696202652505e+00
1.004628889353154619e+01,4.480915200955330846e+01,-9.765772829887346518e+00
-9.287178314946963553e+00,4.506714852165288931e+01,3.039162590534976616e+00
-4.455956536288180558e+00,4.635934492972504017e+01,9.630277060429143887e+00
-3.285015153307334401e+00,4.805401687539097821e+01,1.061706627923361523e+01
-1.996756430214293943e+00,4.966575722474460974e+01,1.133106761348882330e+01
-5.417110260247426368e-01,5.103460486653978734e+01,1.160776412297462556e+01
-7.244414257738526430e+00,4.537597660386159504e+01,6.553934786061581086e+00
-5.795956584510200571e+00,4.467032538018824539e+01,8.246903709442555908e+00
1.094339165307498973e+00,5.230095753492543054e+01,1.152118487443209283e+01
-8.305583401171226399e+00,4.387820942410051117e+01,4.808883949729970020e+00
2.966661349873103148e+00,5.355500843283954282e+01,1.108670735351663339e+01
6.017213784578089530e+00,5.715630884156069413e+01,9.503486592389762677e+00
4.519263429193678405e+00,5.529681497914449295e+01,1.041434288540130026e+01
-9.869926233735146326e+00,4.370292324866687750e+01,1.407797973925633883e+00
-1.062319683504495060e+01,4.440880712881611458e+01,-1.995479193947957697e+00
-1.074499905392275423e+01,4.611065006020015744e+01,-3.675476346809407602e+00
-1.029054750218568159e+01,4.266425264588573896e+01,-2.765360913130443521e-01
-1.058772297109588401e+01,4.509888296220484705e+01,-5.463762807698850921e+00
-1.025818174565088370e+01,4.529551986619674153e+01,-7.420580725456389359e+00
-7.195572010980654909e+00,4.629875920977627857e+01,-1.147221687716438332e+01
-8.540854351284714596e+00,4.487530218366489976e+01,-1.060236860359858824e+01
-9.684793988398183728e+00,4.424505653893077550e+01,-9.021198653462979777e+00
-6.792818093941338731e+00,4.437322199000601586e+01,-1.181770966149028723e+01
-5.074319895217968224e+00,4.448369611914461075e+01,-1.239375758912399661e+01
-3.279670574148276785e+00,4.473137174143993633e+01,-1.265438368538345415e+01
2.633458617913433386e-01,4.522137280566990825e+01,-1.265904877328737399e+01
-1.335387987348767069e+00,4.384994843852393132e+01,-1.286546519770838337e+01
4.388006765413244636e+00,4.534292533342792808e+01,-1.206992767393026789e+01
2.421211769650270185e+00,4.409121159811255808e+01,-1.261011044756581967e+01
-7.338606298085451840e+00,1.987928490950515368e+02,-1.151341022342047893e+01
1.159741387823295611e+01,1.935579327921594484e+02,-1.031890883850918073e+01
9.785295436820462101e+00,1.946371769311316484e+02,-1.115366642868822566e+01
1.484722984471464713e+01,1.831722825581920802e+02,2.395837912872252673e+00
1.640343210164913046e+01,1.844557064612457111e+02,1.308090222064139496e+00
1.811428170674460603e+01,1.852898275945061641e+02,3.245747062526049831e-02
2.009080405052618801e+01,1.902396040249206521e+02,-3.560268789938742628e+00
1.872060805556365892e+01,1.916344496036257965e+02,-5.855332277724762946e+00
1.977542728737238065e+01,1.917753014538546950e+02,-4.574448308468443969e+00
1.733459137121944593e+01,1.922761814595512817e+02,-7.036277338836370632e+00
1.575305591080865497e+01,1.930390597304892424e+02,-8.121360180118010419e+00
1.380692236973568754e+01,1.934046013727592026e+02,-9.248725194564116237e+00
1.797541320549144928e+01,1.875448937323259884e+02,9.400906937221442661e-02
1.885481092428445038e+01,1.894592542494494012e+02,-7.537173137385781985e-01
1.970161148499362014e+01,1.911674132483169330e+02,-1.833892231751255153e+00
4.507533602593497335e+00,1.963227371679666646e+02,-1.297246367978667081e+01
2.490461477942673696e+00,1.965743353569493479e+02,-1.343507336738154834e+01
-1.552174195819020497e+00,1.974621413823544742e+02,-1.375289412373410158e+01
8.704032722273069567e-01,1.980762063830842692e+02,-1.374156669137364162e+01
-5.380517866747965172e+00,1.990403785628748778e+02,-1.285451716059459670e+01
-3.193052459089457784e+00,1.994108798113412604e+02,-1.360345324415127521e+01
8.112258810588130586e+00,1.959855276532341009e+02,-1.187234013561080559e+01
6.568470365787277387e+00,1.973393186268051522e+02,-1.245597852150980600e+01
-1.010705143590583077e+01,1.951371454535624537e+02,1.751222937547481706e+00
-9.233885974420360299e+00,1.943922440347955103e+02,3.577327634054583427e+00
-7.965335187741828804e+00,1.935180787136570189e+02,5.500546512959264334e+00
-6.530624785814495681e+00,1.925959049491852397e+02,7.021897445131056514e+00
-1.067690021735413097e+01,1.959391253957561219e+02,-3.168958919417619313e-02
-1.096799065057322764e+01,1.967456983852078451e+02,-1.915645282362646640e+00
-1.091899693099207980e+01,1.972194274192414412e+02,-3.712677597469870250e+00
-1.078836562209885130e+01,1.987446087086361217e+02,-5.177864867375078006e+00
-1.045743507267305006e+01,2.001687937964876483e+02,-6.644169094498543870e+00
-8.567820686151890186e+00,2.006888454569322846e+02,-1.020616337996754908e+01
-9.750971940584634012e+00,2.011553844412134424e+02,-8.400506038858260638e+00
-2.376627955278067361e+00,1.912049914694666199e+02,9.172450328097816907e+00
1.986444493764778940e+00,1.889587865083879024e+02,8.540251409670325700e+00
-5.922855151797534745e-01,1.926220139904945654e+02,9.129533349130905862e+00
1.370981742919695989e+00,1.913728456708811905e+02,8.710333547389122799e+00
4.292188400085123590e+00,1.877992133826620886e+02,7.662357738037723465e+00
-4.564980834929656339e+00,1.919244246073108968e+02,8.350342365046902415e+00
8.679291265136342304e+00,1.867181907485976353e+02,5.795813816082770131e+00
6.567863064581473509e+00,1.870873982085864213e+02,6.693550344125160478e+00
1.418295153812893261e+01,1.854529210391896754e+02,2.725104994294804683e+00
1.077982883055645402e+01,1.869449426032419979e+02,4.656423187031069943e+00
1.278639404224411180e+01,1.873926440885093427e+02,3.558772188932660896e+00
6.666607227607819652e+00,4.449126237422395036e+01,-1.154135714220376840e+01
8.599307230558942194e+00,4.317243390500348710e+01,-1.093515774972563825e+01
6.939105656025333246e+00,5.569406321847046826e+01,8.879437078084469803e+00
8.590871915636611789e+00,5.320661769017902287e+01,7.547697020539255064e+00
7.290263500252329720e+00,5.355398779414664290e+01,8.693190780894399339e+00
1.186610253592522213e+01,5.201475111989442723e+01,3.089896685073846072e+00
1.070454039505330712e+01,5.283948812513342830e+01,5.008869725579849330e+00
9.532976260412659997e+00,5.127475697707656366e+01,6.633519965231975846e+00
1.272996448452661156e+01,5.097540672908228032e+01,9.394233262832507592e-01
1.316011044998361257e+01,5.017894478914102763e+01,-1.238288880292749639e+00
1.327875614962127315e+01,4.652657444829463174e+01,-3.870721540336802491e+00
1.329637885929502517e+01,4.795297597474071694e+01,-1.981357533385967429e+00
1.227442667737664550e+01,4.564716857130413530e+01,-7.128999946889486239e+00
1.150842854659924797e+01,4.412032229509044612e+01,-8.550282466496870626e+00
1.304417495131995963e+01,4.481709843319695352e+01,-5.428244898296187060e+00
1.046987710166582275e+01,4.260673503308767351e+01,-9.846648660785472629e+00
-9.127912762717844686e+00,4.232838672878607866e+01,3.187067316435181041e+00
-2.897451978390204630e+00,4.543924821294601202e+01,1.073144699332737773e+01
-4.194061027751285309e+00,4.385848581163335780e+01,9.727952273477512790e+00
-1.641821311380834203e+00,4.708889184841913789e+01,1.135496437230208144e+01
-2.365786322966272337e-01,4.852047930451173841e+01,1.162166754178052841e+01
1.413901489241983001e+00,4.974923579752903180e+01,1.152179923431040010e+01
-7.055152016006264404e+00,4.292807644131283951e+01,6.641326807551128475e+00
-5.606130386639556207e+00,4.222597524698562665e+01,8.373881052786833479e+00
3.064733008023402761e+00,5.095250452561529642e+01,1.112951911811607353e+01
-8.128948141512641001e+00,4.132309628137812041e+01,4.941352880721014529e+00
4.628661835246340672e+00,5.225558394895372771e+01,1.046478823031898209e+01
5.744935415247120147e+00,5.398247575264344533e+01,9.775559044632043282e+00
-9.755381346143771282e+00,4.102603451227170694e+01,1.481751087869289663e+00
-1.055629616214997668e+01,4.185611464168336227e+01,-2.110198078708686253e+00
-1.066846714109176375e+01,4.353818664957326234e+01,-3.845650889242088866e+00
-1.023406505723953686e+01,4.012785128501352006e+01,-3.110861066930308283e-01
-1.046451313616998036e+01,4.305026335298248341e+01,-6.104689587362243763e+00
-1.008169888729229591e+01,4.225023357927911860e+01,-7.950074659406343613e+00
-9.088105774055414088e+00,4.258754063389730504e+01,-1.006186446601161322e+01
-7.718889612239745901e+00,4.266715493240047152e+01,-1.140401551896515997e+01
-4.206918363113011594e+00,4.240347453102509689e+01,-1.277078837841917114e+01
-6.009246324459919464e+00,4.229747530571894742e+01,-1.231153740492036164e+01
-2.530143810441103369e+00,4.226790825458304113e+01,-1.300773011981655003e+01
6.025817708607732470e-01,4.302465056897167273e+01,-1.293696909884231872e+01
-9.037168214244175601e-01,4.127204205959473171e+01,-1.320029186201089999e+01
4.663838319569947544e+00,4.314229162675697893e+01,-1.235174578761522923e+01
2.937310675634655865e+00,4.191711449579856463e+01,-1.288063033742549379e+01
-6.876153838156184861e+00,2.011062121056997682e+02,-1.192624698401765215e+01
1.131179000638995547e+01,1.959822936108482452e+02,-1.063176338068269189e+01
1.304385212337297162e+01,1.953667999256135488e+02,-9.782588010339139828e+00
9.652279849563285552e+00,1.970091869196651828e+02,-1.136193928888830840e+01
1.626640119468254397e+01,1.866638904806052039e+02,1.295085982414928338e+00
2.015108255254514802e+01,1.929804364462519004e+02,-3.160200062370449814e+00
1.942989594443224632e+01,1.936197705282119159e+02,-5.290202694768755265e+00
1.823156683693240154e+01,1.939865300067943394e+02,-6.481783227426348049e+00
2.014662593507623001e+01,1.950516829644770382e+02,-4.256812835226806868e+00
1.675143707492793510e+01,1.946293306602067901e+02,-7.603275848303830742e+00
1.494349215582477086e+01,1.950719093332660350e+02,-8.754921891469876982e+00
1.692741101814907267e+01,1.894208103170564641e+02,7.650619857032161519e-01
1.812469948269034603e+01,1.917103763150710449e+02,-1.859765426331492222e-01
1.923917717215094569e+01,1.934288232607265456e+02,-1.327689594161622466e+00
4.877573817442794279e+00,1.983680140704056498e+02,-1.299350738801486216e+01
3.003102545669349865e+00,1.988695345807691695e+02,-1.345357711184679772e+01
-9.288571512173859901e-01,1.996928913449670233e+02,-1.387308342292693197e+01
1.325025209298544837e+00,2.003351088186966251e+02,-1.379402985743485033e+01
-4.822470772202819944e+00,2.013228801671735653e+02,-1.314006174990270637e+01
-2.535762838778168771e+00,2.017344128843291742e+02,-1.381274755391020648e+01
8.360006295339246662e+00,1.984709575710110130e+02,-1.193438783291931315e+01
6.571652459669778068e+00,1.995148205117235989e+02,-1.257544722862313336e+01
-9.500385451714990381e+00,1.968025383197818883e+02,3.165096724894489455e+00
-1.038043583938755887e+01,1.977371982684746285e+02,1.267017794142583753e+00
-8.272179773612307940e+00,1.959897925295953200e+02,5.089092595866731017e+00
-6.747598027586860781e+00,1.950321735689270497e+02,6.766326465389163047e+00
-4.886001108759202793e+00,1.941768253077499367e+02,8.123995676610306305e+00
-1.089965409584957001e+01,1.982668888194203305e+02,-6.091142858511169322e-01
-1.111364594188613353e+01,1.992199526788454023e+02,-2.945093441580269200e+00
-1.106818940892065939e+01,2.010304957081276598e+02,-4.520125738893121081e+00
-1.074554243465095738e+01,2.024276405953033304e+02,-6.158870908614929363e+00
-9.112882898533854359e+00,2.030867675686965299e+02,-9.613149674074044526e+00
-7.795518991594576619e+00,2.031933122560554352e+02,-1.117118846501721663e+01
-1.013569749069340276e+01,2.033607573283981651e+02,-7.849110039134032490e+00
-2.704677353096670345e+00,1.935208236307827860e+02,9.038742629955905272e+00
3.713518940563005799e+00,1.902567719913711812e+02,7.876700525158334187e+00
1.424717097641789110e+00,1.940390133417770926e+02,8.742907308245783327e+00
-6.956616951865441933e-01,1.951297437403977426e+02,9.135336597648169743e+00
3.281109688519208589e+00,1.926411713390444334e+02,8.013871418656300705e+00
5.985608288563341262e+00,1.896311568097841018e+02,6.932227533948644549e+00
9.714139164840759122e+00,1.888706743848929079e+02,5.158135591382301044e+00
8.031036511228109021e+00,1.892583933811201575e+02,5.952182740219718937e+00
1.479542619224628197e+01,1.879470448468684083e+02,2.287572919154429840e+00
1.144147214934623946e+01,1.894389461983655565e+02,4.258185177370702235e+00
1.327229477146246950e+01,1.897711081607766346e+02,3.169460812360590296e+00
6.559490690464684803e+00,4.237548102222466184e+01,-1.194105106270441397e+01
7.494762117312895100e+00,4.079366911768816806e+01,-1.187595501342204685e+01
9.367707523237328360e+00,4.092818208189155627e+01,-1.092233696599294390e+01
7.884340239993591126e+00,5.110729075885539174e+01,8.294367432570115994e+00
6.341779225801886355e+00,5.149382069345556800e+01,9.495548033381847830e+00
1.211784862408651975e+01,4.958558797323614442e+01,2.705121652247775899e+00
1.090438741455431426e+01,5.039615340500857599e+01,4.817154366048672642e+00
8.471158502971050552e+00,4.895553591502878987e+01,7.849797165103401753e+00
9.920107686977814865e+00,4.872393932704819264e+01,6.275468691660810450e+00
1.296199232134981827e+01,4.849409181315976980e+01,3.131351477908435044e-01
1.338982277954384870e+01,4.567995236407161030e+01,-1.882893765077491288e+00
1.343769677066200785e+01,4.394669290002418194e+01,-3.408759106691223728e+00
1.305796947963505517e+01,4.600679403394314448e+01,1.237420682132128746e-01
1.254296925866174917e+01,4.328519995736614590e+01,-7.094256075267464823e+00
1.184611292648511949e+01,4.189928330647468613e+01,-8.541781687336083451e+00
1.326285465327964630e+01,4.240498854863298561e+01,-5.183678206438176339e+00
1.097123337028467915e+01,4.035389993313962975e+01,-9.834783162197142659e+00
-8.978338441423421301e+00,3.971709937463188567e+01,3.262911941270704830e+00
-2.550676601625529116e+00,4.293147176454063185e+01,1.080182638280390073e+01
-1.231871355047729821e+00,4.451038336933386574e+01,1.138355107076748496e+01
-3.991453928542163965e+00,4.143077696464968795e+01,9.777360635495895735e+00
1.215674297132878223e-01,4.603006314130237797e+01,1.162705651583082123e+01
1.789422932790550647e+00,4.727967925401200944e+01,1.151693373972730861e+01
3.506719808797832627e+00,4.841473048714201610e+01,1.104830482609101949e+01
-6.921249366041553941e+00,4.050359860997126304e+01,6.707072124119721757e+00
-5.446146518892760469e+00,3.982710052869040851e+01,8.390658248316643864e+00
4.997800417241798243e+00,4.975761907480313084e+01,1.037982914325793793e+01
-8.008245536281801691e+00,3.880820457552880498e+01,4.973475277566285158e+00
-9.690603291758826288e+00,3.847569629704184280e+01,1.512285675594821299e+00
-1.052682267901264090e+01,3.953613011695045998e+01,-2.347872784540632196e+00
-1.059187888823839430e+01,4.130474617120665215e+01,-4.166472963955952125e+00
-1.025877196470447750e+01,3.785071478813840429e+01,-6.203984976379004479e-01
-1.044990984214068241e+01,4.059761404111100802e+01,-6.047007658356513993e+00
-1.012030639609884730e+01,3.955619053280040731e+01,-7.716453811557618003e+00
-9.533526143317001100e+00,4.059514344790395057e+01,-9.402244653380254391e+00
-8.300841565453978887e+00,4.075553378909958724e+01,-1.108816558224210169e+01
-6.803657847615554033e+00,4.043900694590415412e+01,-1.214511714341922044e+01
-4.857645222630345927e+00,4.038282660704307858e+01,-1.284284664918812524e+01
-2.992315875772540323e+00,4.003874926728417449e+01,-1.321019084633696750e+01
1.066006577977638869e+00,4.104213367444639005e+01,-1.319418401592422896e+01
6.809595853640431073e-01,3.910187195319433329e+01,-1.350132207090419456e+01
-1.272744365851643522e+00,3.919602646957844172e+01,-1.346490049809524692e+01
4.941201146400736377e+00,4.068116500611105835e+01,-1.271799855450183436e+01
2.735871228977771352e+00,3.973899857019919324e+01,-1.326267323530132280e+01
-5.963443474482573947e+00,2.034999900831004140e+02,-1.261492506351221010e+01
1.261071626463285611e+01,1.977233819946379185e+02,-1.016355730434506910e+01
1.088153617167442633e+01,1.983829108883471406e+02,-1.097875511601004916e+01
1.429704698283899234e+01,1.971937050837026106e+02,-9.267401861483463676e+00
2.001769738736203408e+01,1.952916121992183776e+02,-2.488739316627887277e+00
1.912324985398646504e+01,1.957779586794057423e+02,-5.848393017099205338e+00
1.775846219218729516e+01,1.962691372076669154e+02,-7.035837609468615028e+00
2.030819371321160816e+01,1.973268940382182564e+02,-3.463664944302555782e+00
1.989739397755724326e+01,1.973855864882795572e+02,-5.089543560738217565e+00
1.605213799149520071e+01,1.967148060704647037e+02,-8.215632967908753415e+00
1.521374357542804034e+01,1.901925451589441991e+02,1.937975747783548641e+00
1.630732313358821273e+01,1.921544788645383619e+02,1.146723111732685041e+00
1.737750116834780556e+01,1.943027579065644090e+02,3.480959589969261359e-01
1.884218529474165393e+01,1.954918269709988863e+02,-9.369543581412989042e-01
4.672771428849713971e+00,2.004850887948452112e+02,-1.314972323892136785e+01
2.997374747669695694e+00,2.014692497617212155e+02,-1.356913101904036978e+01
-3.673095348742805299e-01,2.018147362374663203e+02,-1.395491831742574362e+01
1.277415709922919973e+00,2.028543866794550468e+02,-1.389080790973265067e+01
-3.895796992209895393e+00,2.036575804498356206e+02,-1.352450289362896996e+01
-1.269202290148200518e+00,2.038906293269770913e+02,-1.396359760192748212e+01
8.231818706403146280e+00,2.007037402687360270e+02,-1.212756263092766318e+01
9.919861924844852297e+00,2.000964219631296430e+02,-1.147346054130518667e+01
6.283539447097979291e+00,2.016411029552537855e+02,-1.277815657235604618e+01
-9.828527540344339286e+00,1.991814921764990913e+02,2.673173309878954740e+00
-8.678020708780337600e+00,1.984050733261405810e+02,4.570845019471805770e+00
-1.074372859460284246e+01,2.001851042992937835e+02,5.089958011171766827e-01
-7.007314872279636120e+00,1.973876470251753403e+02,6.511745798381099348e+00
-5.163443934608523023e+00,1.964921823566333785e+02,7.879117215539313435e+00
-3.085110426963495911e+00,1.957606216843410323e+02,8.783741145714937915e+00
-1.112750966542802189e+01,2.002307520017320712e+02,-1.422730751762081525e+00
-1.129962655280918682e+01,2.019595036371292736e+02,-2.887727142542679815e+00
-1.124442959581732282e+01,2.038773500159333878e+02,-4.497496610893151114e+00
-1.076308754027702719e+01,2.049385769702134894e+02,-6.566400270743045553e+00
-8.563238681213533710e+00,2.053670058090347936e+02,-1.037841934084417517e+01
-9.782771045079670102e+00,2.052963751462037578e+02,-8.657917232448191669e+00
-7.009327089149948620e+00,2.054812620597091382e+02,-1.190027919184038296e+01
5.435275225408119582e+00,1.920391805027176133e+02,7.120270227567811361e+00
3.970190994268506302e+00,1.948155558860617020e+02,7.745770114178558430e+00
1.649720580241634593e+00,1.963904215590156355e+02,8.673906105540755362e+00
-1.245017615435330072e+00,1.972347010287563194e+02,9.046408411662110183e+00
7.689036021320177383e+00,1.916543230804544464e+02,6.094024455821379860e+00
9.877197427458639822e+00,1.914007810573464496e+02,5.035820137705687927e+00
1.200597433932276203e+01,1.918245162804363702e+02,3.960446096770752433e+00
1.404336393699983887e+01,1.921273115554868696e+02,2.734754543865488330e+00
6.248097801396539808e+00,3.894785566656460674e+01,-1.267517186225008174e+01
8.384942847843646518e+00,3.888129860306483465e+01,-1.185513477657089609e+01
1.010715028837908847e+01,3.867475819246709534e+01,-1.088656981074085195e+01
6.787768089641303959e+00,4.917719422882271374e+01,9.278601812675088212e+00
1.235870236050421056e+01,4.721505485453581485e+01,2.277136872555146851e+00
1.127778790470762971e+01,4.798870887814813102e+01,4.403943026979629138e+00
8.981427690380549222e+00,4.668093805380713945e+01,7.512654731242006001e+00
7.329979525951792141e+00,4.689273815950658530e+01,8.983591909224752925e+00
1.036639356759248187e+01,4.614944306382096073e+01,5.836267890738680464e+00
1.335156001313632146e+01,4.355731442847962143e+01,-9.330792613190457274e-01
1.358094447502499946e+01,4.168798231643580010e+01,-2.847427715101418677e+00
1.260233347883467303e+01,4.468290071552010545e+01,1.737124850095626449e+00
1.285493601462719937e+01,4.098690020662427713e+01,-6.880361917005140882e+00
1.223893661216411033e+01,3.965013480506799226e+01,-8.406243044078236082e+00
1.347499584857821731e+01,4.017002114321080342e+01,-4.837171454458104591e+00
1.153306680038975429e+01,3.809190576993386657e+01,-9.711108815590081988e+00
-8.882188835018496320e+00,3.714607813208544940e+01,3.268917778377591787e+00
-7.577147239881689700e-01,4.197136762016074840e+01,1.142907201766475112e+01
-2.246668119399789276e+00,4.051196322561690977e+01,1.078473991207419935e+01
5.137201041944940982e-01,4.352138958042718997e+01,1.159157926031823216e+01
-3.796662844744290055e+00,3.907573440375866625e+01,9.718542691309934867e+00
2.171287208927932255e+00,4.488911151660936127e+01,1.145745813670645141e+01
4.018449501290742631e+00,4.600834452066024483e+01,1.093244162472363357e+01
5.526572864339215130e+00,4.734075350732205578e+01,1.017906571922249093e+01
-6.766705852753553074e+00,3.810122130691007669e+01,6.755739451012944485e+00
-5.296926090910318408e+00,3.749159397379850844e+01,8.350022390916313597e+00
-7.822820564342947591e+00,3.640761822256877167e+01,5.127117841517954133e+00
-9.845207048121617177e+00,3.637656947397432816e+01,8.704049230142310023e-01
-1.049949494480254764e+01,3.711766838268357560e+01,-2.513657707652789952e+00
-1.055975890429714426e+01,3.889023260441005192e+01,-4.237465896844913260e+00
-1.029170578931459445e+01,3.542028916277568840e+01,-9.232672703571722650e-01
-1.043696554770859741e+01,3.810747463934182377e+01,-6.062650860809648101e+00
-1.015220995586367714e+01,3.696122013273689078e+01,-7.727586051228435338e+00
-9.663933413507391990e+00,3.807183072302616722e+01,-9.194233400102033826e+00
-8.843015119841300731e+00,3.892501517970561764e+01,-1.057367526783550460e+01
-7.556932009595577426e+00,3.843634102490884885e+01,-1.185006885663137588e+01
-5.758435556918783504e+00,3.864028448580054231e+01,-1.276876003283035921e+01
-3.945282932046993096e+00,3.811140696853374976e+01,-1.329824366822485615e+01
-2.196577081398409348e+00,3.745062757867997050e+01,-1.362889896947197421e+01
-1.368487868146743835e-01,3.722430459798079738e+01,-1.378586610526388689e+01
2.138087008795743316e+00,3.747629734890322339e+01,-1.368838058829361870e+01
4.088715076238415236e+00,3.834780604165327844e+01,-1.329844148035106954e+01
-5.265562617577117521e+00,2.060316601288565721e+02,-1.299039707267593258e+01
1.383332963985417052e+01,1.996059232624936044e+02,-9.706385953531750488e+00
1.218183742163441252e+01,1.999538772479174611e+02,-1.052807784906575961e+01
1.543797679309297166e+01,1.988501017856584667e+02,-8.762636327005601800e+00
1.952625814803262472e+01,1.974811518694937149e+02,-1.699744959088212326e+00
1.866548438577416391e+01,1.980086838645539729e+02,-6.452089192275686003e+00
1.716170956446133289e+01,1.983631520457663271e+02,-7.638139102833122251e+00
2.003109879040577823e+01,1.994913142385017579e+02,-2.505978121272300463e+00
2.033511823499132731e+01,1.994779447541185675e+02,-4.290174383475536146e+00
1.945890611385722480e+01,1.997024537066508287e+02,-5.848047073293852094e+00
1.518210967798532351e+01,1.942309621449826693e+02,1.963736649602305206e+00
1.598513872071870878e+01,1.965171418834627843e+02,1.379943512841016684e+00
1.782940171634984949e+01,1.970759818596183095e+02,-7.918007283168204680e-02
4.673446288775934931e+00,2.028769369229940480e+02,-1.327739212050294526e+01
2.986803347811004983e+00,2.039780363180194911e+02,-1.369392225393520590e+01
6.650838244351433559e-01,2.050161432373683397e+02,-1.400037275954540661e+01
-3.059248976178821522e+00,2.055092269269035796e+02,-1.371154094071067675e+01
-1.274444328812876392e+00,2.065327625084381964e+02,-1.401370233083437711e+01
9.770934999777310281e+00,2.026291362451546263e+02,-1.169082167555701801e+01
7.927362376312800052e+00,2.026604738076913463e+02,-1.232713844109787971e+01
1.132362454370226601e+01,2.016052591449515603e+02,-1.102131352557543664e+01
6.378435142855778395e+00,2.039113439128201719e+02,-1.288428400159085641e+01
-1.016618198923092109e+01,2.011989452494096327e+02,2.154175694090136872e+00
-9.061881416023766178e+00,2.009632608884117531e+02,4.103913621633989095e+00
-7.623310328492863164e+00,1.995544916993293896e+02,5.862525715071033261e+00
-1.081660458106634337e+01,2.026858704663143556e+02,7.722047404875471699e-01
-1.120969986128899620e+01,2.022879291009520273e+02,-9.370038386643422257e-01
-5.478272135137473242e+00,1.988624952793273337e+02,7.642154517482964593e+00
-3.430335171629295132e+00,1.981295555149035010e+02,8.593313161182404514e+00
-1.147516587621709050e+01,2.042050516190281826e+02,-2.396658615306467510e+00
-1.156868117243497807e+01,2.062114720318108994e+02,-3.586012079009996967e+00
-1.122105263318732682e+01,2.066393418633115857e+02,-5.556732125762728458e+00
-1.040909477090119140e+01,2.071497388124511474e+02,-7.680896544727559672e+00
-7.607011422916798438e+00,2.076572199835238735e+02,-1.142506777442365262e+01
-9.243819952555568875e+00,2.074314097829425236e+02,-9.601899458025471290e+00
6.539240767952321676e+00,1.939745060060110688e+02,6.632737084244826775e+00
3.970802642668274984e+00,1.973914695598560343e+02,7.795481493484153646e+00
5.859828790628398565e+00,1.962973032074906143e+02,6.921163309894168947e+00
5.566916746097660962e-01,1.984451907566860029e+02,8.916165696181405309e+00
2.551045684703353800e+00,1.991835818224535899e+02,8.370405039539047465e+00
-1.502958327650503634e+00,1.996191825998005811e+02,9.032602685265715081e+00
8.933257746943240818e+00,1.937389819299629323e+02,5.497482824727047301e+00
1.090865868889112278e+01,1.938218318603120451e+02,4.506547360114637968e+00
1.300009025889239922e+01,1.941323463400862295e+02,3.348757212794332361e+00
7.353309560645385545e+00,3.704179430026214703e+01,-1.267383373202168784e+01
5.293979727379280575e+00,3.694111918886783030e+01,-1.331552972069158791e+01
9.249980333820332135e+00,3.684087696848222748e+01,-1.183234520571138582e+01
1.085727723444500725e+01,3.642786302241896124e+01,-1.078186937709390136e+01
1.161843876380050489e+01,4.550498401746924060e+01,3.902723515605037719e+00
9.524025890403237327e+00,4.417709270543912226e+01,6.984892406412126498e+00
8.033105348317128858e+00,4.482959045422849442e+01,8.496278010021210747e+00
6.014400179874840546e+00,4.496345447964555575e+01,9.976945026475600997e+00
1.086945850671401814e+01,4.369858655542766712e+01,5.205566116102314567e+00
1.337937746020752883e+01,4.094237319407890396e+01,-6.216329309854673468e-01
1.294230116520232343e+01,4.251716393385946446e+01,9.772877728150484167e-01
1.365369148665637056e+01,3.933880873903167696e+01,-2.554469790911156224e+00
1.204879722605773651e+01,4.293125899050662753e+01,3.193740514745679882e+00
1.316294564141638546e+01,3.874123011137868389e+01,-6.611900632680121959e+00
1.267532076594984147e+01,3.739382404613495936e+01,-8.184320393125258164e+00
1.369303239827019070e+01,3.792654298150932846e+01,-4.440193631889805204e+00
1.211500623250299213e+01,3.585513530638815638e+01,-9.514491650856687244e+00
-8.521608906834863717e+00,3.458958983746752125e+01,3.805539275877521277e+00
-9.315313973391230462e+00,3.515484043368812195e+01,2.225011049580743361e+00
1.324243516396283127e+00,4.082959411546854511e+01,1.159887444903543141e+01
-3.990389776173621783e-01,3.957992286626271294e+01,1.137721702095302589e+01
-2.018718127167250742e+00,3.815495413520065426e+01,1.068484985126916520e+01
2.405514384586343368e+00,4.262767540315881831e+01,1.143741414353242192e+01
-3.626972746489879995e+00,3.682539276621410096e+01,9.623552055659891025e+00
4.247697677775498448e+00,4.365388288445750220e+01,1.087909804802941949e+01
-6.603951518815218691e+00,3.578872322123328331e+01,6.800537066054094026e+00
-5.192272028715613885e+00,3.518790233964996617e+01,8.283811726334654679e+00
-7.528268490595323215e+00,3.397391901060854025e+01,5.421668974756524761e+00
-9.862331896561936873e+00,3.386000393844065570e+01,6.288302645334091778e-01
-1.051484477454429722e+01,3.468484722826195110e+01,-2.741345754098334808e+00
-1.056962525909319695e+01,3.642709783612247776e+01,-4.384372422340593545e+00
-1.029263756960959952e+01,3.297201537437000241e+01,-1.109914106390132105e+00
-1.041023999152981716e+01,3.557840957550406102e+01,-6.186052375068285869e+00
-1.012940378457361312e+01,3.455882693650200821e+01,-7.976718980878951371e+00
-9.588352908387303586e+00,3.575841138153198528e+01,-9.455930387271973103e+00
-8.786508503176410301e+00,3.685826832275688503e+01,-1.077659524229481924e+01
-6.358806558370918793e+00,3.700541020708639195e+01,-1.272713663007267471e+01
-7.669105470446460515e+00,3.613126286463979397e+01,-1.203386670061035346e+01
-4.743800866770214952e+00,3.622945451705344766e+01,-1.335414330874068156e+01
-3.031421138981080787e+00,3.562018341841154268e+01,-1.377301255828856341e+01
-9.809474041288410717e-01,3.540498820769300181e+01,-1.402531035057063136e+01
1.213092784666720547e+00,3.551302455802466795e+01,-1.404876512578022840e+01
3.567824283351647807e+00,3.577435169463151965e+01,-1.384818085570113944e+01
-3.594348281517213195e+00,2.077881097251923563e+02,-1.366372027210410067e+01
-5.740419666800150367e+00,2.085662006394002219e+02,-1.287256882769613497e+01
1.511254120621075003e+01,2.012520405785157891e+02,-9.134921076848790733e+00
1.337969100330256822e+01,2.020350869233586195e+02,-1.011340236317130348e+01
1.655471102153624940e+01,2.003645128153910377e+02,-8.198954419467078480e+00
1.859682555680288374e+01,1.993485830136596064e+02,-7.845894959399664081e-01
1.804740484007257351e+01,2.002737488912870276e+02,-7.150589278035290874e+00
1.931453218938865746e+01,2.014289859295668066e+02,-1.603011255602254437e+00
