-2.704397747025301157e+01,3.349269637130180399e+02,-7.666347362064001913e+00
-2.721191683814788931e+01,3.359071067643379251e+02,-5.254059456967574704e+00
-2.597954755456124332e+01,3.354044758268069586e+02,-3.486670330032840326e+00
-2.599548859666816369e+01,3.362079166470152813e+02,-1.305535271416896848e+00
-2.557639317946792445e+01,3.368289130886209932e+02,9.563329223593264317e-01
-2.144072573603347109e+01,3.367013368085933962e+02,4.735069257659267450e+00
-1.991765934611086664e+01,3.366810507123110483e+02,5.712667888700396546e+00
-2.323265013073965690e+01,3.370394738651709758e+02,3.887331072080584704e+00
-2.511011278588200923e+01,3.375696724325538867e+02,2.920491166315827058e+00
3.510056776616819008e+01,3.314347011078245373e+02,-4.085168310939160108e-01
3.504361326329488691e+01,3.320428056680522673e+02,-2.236331526308834583e+00
3.468900243506905667e+01,3.325375241601274752e+02,-4.254469725973379468e+00
3.410606169947049437e+01,3.336061970908074841e+02,-6.336850097560500217e+00
-4.490850097546200459e+00,3.383672897005920959e+02,-2.985338985563583236e+01
-6.366187800108269457e+00,3.380489311166726907e+02,-3.032288667302005081e+01
-8.299168838003868842e+00,3.383720481081840035e+02,-3.116273405079119385e+01
-1.003679057390101725e+01,3.368351660919752248e+02,-3.049997338306275196e+01
-1.268172189567764008e+01,3.361720532724766599e+02,-3.041498204247281478e+01
-1.498067046924831303e+01,3.359213924492688648e+02,-3.032151094742571473e+01
-1.721986358744565848e+01,3.357076797890887292e+02,-3.000982419720522643e+01
2.992419612454483513e+01,3.381711520902570101e+02,-1.183693397000777026e+01
2.728331678144023442e+01,3.397364106376793416e+02,-1.392568715208344088e+01
2.415244154840777924e+01,3.399935663885702297e+02,-1.597478289150010511e+01
2.587416043527532850e+01,3.409192590471382118e+02,-1.498063013493541007e+01
2.902061857461252714e+01,3.400266423031736167e+02,-1.238490497089288311e+01
1.806695228211061988e+01,3.403754395512891051e+02,-1.913803139967886224e+01
1.625066946116470135e+01,3.410444175251070078e+02,-2.051170517362500334e+01
1.423483838570723847e+01,3.400983371865704044e+02,-2.130078097224473765e+01
1.232419763735870077e+01,3.407413347661820353e+02,-2.270399902316856355e+01
2.023898250111184893e+01,3.411703539420524294e+02,-1.822349958788520752e+01
2.261109514787482055e+01,3.415464981721173103e+02,-1.711474421935499279e+01
3.139107089482941859e+01,3.380120960075096832e+02,-1.036457721945652111e+01
3.345908143176098548e+01,3.356068858310057976e+02,-7.574005085611656085e+00
3.256588968253177541e+01,3.373249434568101606e+02,-8.790872610675663168e+00
2.640219121808030422e+00,3.402898865392335779e+02,-2.806221637869424512e+01
7.048309601820665904e-01,3.405374015831238808e+02,-2.929968285170952669e+01
1.033490600048057217e+01,3.413937127424563869e+02,-2.420058686243916668e+01
8.309618578614646367e+00,3.417099909474687820e+02,-2.559399773523595201e+01
6.222615440074446447e+00,3.418061613094106974e+02,-2.691244337698274336e+01
4.238250735529135227e+00,3.418615269698221368e+02,-2.823734487446545671e+01
-1.538852912342258961e+00,3.405525480206421207e+02,-3.032565599065403461e+01
-3.561712295479983581e+00,3.400332274407892328e+02,-3.076863177747955547e+01
2.404879538016963281e+01,3.299319891273978556e+02,1.471218108299104443e+01
2.556747579253967828e+01,3.291567384031059191e+02,1.332773748511841205e+01
2.761323995325750857e+01,3.296830586935017777e+02,1.251901267856694844e+01
2.927249626226453572e+01,3.311538687887733658e+02,1.218355416497708532e+01
3.057663244131144964e+01,3.315164421811433613e+02,1.070968992204430847e+01
3.140172304056356722e+01,3.317630690623375926e+02,9.042399457288230025e+00
3.210348422677267877e+01,3.313723573451033531e+02,7.258462324389759246e+00
3.364065237904844707e+01,3.318620144543895663e+02,4.215032188372642707e+00
3.451992946539709806e+01,3.310224015208362971e+02,2.645736135950070178e+00
3.264257212718645462e+01,3.326993024286849732e+02,5.874122966171265503e+00
3.464957219585706838e+01,3.323617394439273198e+02,1.214243269686694049e+00
-1.892625786776940799e+01,3.377989999963061223e+02,7.426096621037165058e+00
-2.805608820729764918e+00,3.347889310005647872e+02,2.275058272753983246e+01
-9.011592780915718137e-01,3.341831613365513363e+02,2.384928346526917053e+01
1.310174861965501369e+00,3.337317240533171798e+02,2.480357250128145807e+01
3.506407384211182698e+00,3.338767278454606640e+02,2.582829915997384163e+01
4.827866604872775191e+00,3.327069032589582775e+02,2.515617065304137512e+01
7.000738126301937925e+00,3.329465429177224109e+02,2.541990530348775579e+01
-4.283241508311927070e+00,3.353096550270466878e+02,2.153538459318187392e+01
9.300492644507556861e+00,3.331154315715860434e+02,2.521728028815821787e+01
-5.415212322415555057e+00,3.366099316384683675e+02,2.137767951878846162e+01
-6.339179984931185174e+00,3.364031828502686494e+02,1.971050025515670256e+01
-8.191466601430503758e+00,3.364229299197820069e+02,1.644033903295483157e+01
-7.606843801168929886e+00,3.374104563818385145e+02,1.856464125613864269e+01
-9.745591942184113066e+00,3.373702292206523339e+02,1.496464653573021053e+01
-1.136137247575803677e+01,3.379509333565604265e+02,1.350495394798239346e+01
-1.480463117463090583e+01,3.384360085716708682e+02,1.070083553348245076e+01
-1.643715597373594406e+01,3.389206825686567299e+02,9.938677521290889771e+00
-1.744043464031382484e+01,3.380224988812506126e+02,8.597381812639433463e+00
-1.310175989655854778e+01,3.381877010662559542e+02,1.196704894272300024e+01
1.390508200399525585e+01,3.334630062981837568e+02,2.372792124220697474e+01
1.173138359623345295e+01,3.333850662759130614e+02,2.468549481325283779e+01
1.703230411943057021e+01,3.321879452821078189e+02,2.080416414848608753e+01
1.626822438325789477e+01,3.335164512415231570e+02,2.242876690578506071e+01
2.024470016675373074e+01,3.309439387738931373e+02,1.777236821763587571e+01
1.945965004969111334e+01,3.324558840898207563e+02,1.951657489248723465e+01
2.244101169318869893e+01,3.308060998052968671e+02,1.629676810751365679e+01
-1.944201474995183787e+01,3.356696855760064864e+02,-2.945272423772063064e+01
-2.160668852824546349e+01,3.354535744851900745e+02,-2.816747157117087141e+01
-2.320656497941417484e+01,3.349864287008153383e+02,-2.634822785606020545e+01
-2.424914455372866229e+01,3.341731490818607995e+02,-2.365121646886557016e+01
-2.521390999824022572e+01,3.340636798249740309e+02,-2.144356142856587510e+01
-2.601258478829369736e+01,3.340087426428141271e+02,-1.901823816524061073e+01
-2.687973699319634235e+01,3.342941465384336084e+02,-1.689564833491924034e+01
-2.754563226656578223e+01,3.345525382912058490e+02,-1.477675665139537209e+01
-2.807619661219917973e+01,3.349512800047146470e+02,-1.239982729960402530e+01
-2.837154045925684187e+01,3.355167248946427208e+02,-9.874257846643839542e+00
-2.859682694099145550e+01,3.363308862413763336e+02,-7.436238379634364293e+00
-2.878989124722796689e+01,3.371721160985819097e+02,-5.151807146303447382e+00
-2.750033950434615093e+01,3.368526516475666313e+02,-2.911626595849124755e+00
-2.705410923994054073e+01,3.374308607257528934e+02,-2.801136847537009089e-01
-2.686157230468867141e+01,3.381461728395080968e+02,1.783969686454671688e+00
-2.256540159778612420e+01,3.381313039550154258e+02,5.652778895848932450e+00
-2.073588586351548457e+01,3.380635729930859270e+02,6.636398887462281238e+00
-2.450098621039328606e+01,3.383811774507735208e+02,4.685389785615061697e+00
-2.641940528196550986e+01,3.388236653010277450e+02,3.640222799761545502e+00
3.459387447900175516e+01,3.336813933012500684e+02,-5.071917812513913049e-01
3.453935734651778944e+01,3.342083798702845456e+02,-2.603841352793038411e+00
3.430521790848339236e+01,3.346040849915971762e+02,-4.536056588060898065e+00
3.377837285360766373e+01,3.361674905665612414e+02,-5.692086431804785462e+00
-6.048909871115794701e+00,3.397575267289531666e+02,-3.149416904786438920e+01
-8.366469341246453695e+00,3.402118249053696672e+02,-3.241369237548100557e+01
-1.022078947011242533e+01,3.389658249150722327e+02,-3.197225285144168794e+01
-1.181356549196921790e+01,3.377791393946787935e+02,-3.141642973872249911e+01
-1.404067553204426133e+01,3.378995215622629189e+02,-3.161534843251184412e+01
-1.621414656204166604e+01,3.377528918476277795e+02,-3.142323012379601010e+01
-1.856111008172076282e+01,3.375011660148710462e+02,-3.094268108293913855e+01
3.052653409532301509e+01,3.401941430530296202e+02,-1.059222750216355990e+01
2.761620445813122160e+01,3.417221850465298871e+02,-1.342865394898625198e+01
2.454396284683425478e+01,3.424614505985637720e+02,-1.603640556638946180e+01
2.615190661913519676e+01,3.430880255090146989e+02,-1.456068020060619617e+01
2.907548445424185246e+01,3.419829069973818036e+02,-1.167651890354806810e+01
1.845823379923456997e+01,3.424162916037705600e+02,-1.969291854579561729e+01
1.634534833784043428e+01,3.430797535095047692e+02,-2.136656212013377854e+01
1.427533409632793848e+01,3.420613445143069953e+02,-2.221593506366337678e+01
1.216777311053187383e+01,3.427595661673034328e+02,-2.382024193538913437e+01
2.127467530942183416e+01,3.431042800971884503e+02,-1.822271104172894951e+01
2.315861716264838677e+01,3.438255348122871737e+02,-1.712080370431753451e+01
3.186387247533298250e+01,3.392925733684563170e+02,-8.872401749659349690e+00
3.299319106342424845e+01,3.378499648822751169e+02,-7.109170433897372021e+00
2.224575876966035537e+00,3.419385096892299885e+02,-2.952943969584112693e+01
-1.143042818912576308e-01,3.420225832338106784e+02,-3.075469205252146310e+01
1.001611045030421643e+01,3.433918716167520415e+02,-2.546736690840423734e+01
7.705884117508675857e+00,3.434204374262979513e+02,-2.695712006706120434e+01
5.722001288164022981e+00,3.435020400083543564e+02,-2.834775913897691169e+01
3.687707736011093473e+00,3.434456477816669917e+02,-2.964513485386761715e+01
-2.538939105170871180e+00,3.421254128177242251e+02,-3.179680830640092637e+01
-4.560465385001968741e+00,3.412272216826350473e+02,-3.200383160361182178e+01
2.472328709715951689e+01,3.316984562082784578e+02,1.559901032818824618e+01
2.615325062678102341e+01,3.308254031999257450e+02,1.408158701111548794e+01
2.786754459993721511e+01,3.316895533068584996e+02,1.361293311898581848e+01
2.940182957774764461e+01,3.329541550692359237e+02,1.307494905284215037e+01
3.059443495139427682e+01,3.334505419131285748e+02,1.152136948941804206e+01
3.135289882628707758e+01,3.340899736197079619e+02,9.713160846454925945e+00
3.189438868523031445e+01,3.334906978039231831e+02,7.790098261776808641e+00
3.304355381126362090e+01,3.341555169032135382e+02,4.464102076433954736e+00
3.389999093049365797e+01,3.334187088908930150e+02,2.816278857793280466e+00
3.230238242607579480e+01,3.347884135636061274e+02,6.225593439440800125e+00
3.400390371929351829e+01,3.348587634390341918e+02,1.163151702612031713e+00
-1.826437707942433164e+01,3.396075742627155591e+02,9.443674432071267333e+00
-1.991348784423119866e+01,3.393540753117480904e+02,8.342386412929243988e+00
-4.071414819946307162e+00,3.366788305351989266e+02,2.339368855265541214e+01
-2.236886951973220850e+00,3.359490622622345199e+02,2.454167041510542191e+01
-1.749218857474752475e-01,3.354342685269633648e+02,2.553783806343579244e+01
2.049426540467720770e+00,3.352260437693419135e+02,2.647640893779152194e+01
5.934939269911933657e+00,3.342433301772102823e+02,2.659864224435879265e+01
4.531639539679080286e+00,3.353733985904210613e+02,2.746558704966510334e+01
8.270349791250909632e+00,3.344103693161853812e+02,2.665454560843394205e+01
1.072628436378696293e+01,3.345771272969692518e+02,2.622606532430483028e+01
-7.002414250821692221e+00,3.381976613810803087e+02,2.097760835736785623e+01
-5.712037888210951486e+00,3.379257504264656973e+02,2.276975797757477693e+01
-9.067375148193580259e+00,3.383964503628894249e+02,1.704934298988207786e+01
-8.413621705144064933e+00,3.391478175318628132e+02,1.951687141378187818e+01
-1.069438658446178003e+01,3.393065228294825602e+02,1.550881538748436128e+01
-1.241849628045685705e+01,3.395986443620701607e+02,1.372871341335636686e+01
-1.562645167145212532e+01,3.401208455747440098e+02,1.139123561571532939e+01
-1.408405778701617628e+01,3.398980488707135237e+02,1.236628422540464101e+01
-1.720151871320677728e+01,3.407733283861970222e+02,1.100757445802234002e+01
1.555340636237820817e+01,3.347773632434565343e+02,2.408340631513824803e+01
1.317311426027749377e+01,3.349195958640355570e+02,2.556730623931334989e+01
1.855808740999556505e+01,3.337072670501138987e+02,2.119257580519542117e+01
1.776193604899280487e+01,3.350640762762170652e+02,2.298069822868603751e+01
2.148842853101567840e+01,3.324328757735939917e+02,1.820039168908661154e+01
2.086082951342470793e+01,3.341990012104396328e+02,2.012897429631309620e+01
2.343451337834284587e+01,3.326662397213328290e+02,1.715038699101306818e+01
-2.094753678700228505e+01,3.372068662239832975e+02,-3.001699153332938863e+01
-2.294720877940691395e+01,3.370268300513095028e+02,-2.876823281086599593e+01
-2.486767901576779849e+01,3.356896668135276514e+02,-2.548778607799314244e+01
-2.462726626002609009e+01,3.371326203083008295e+02,-2.768750599919290067e+01
-2.607023088999140015e+01,3.356252399525795909e+02,-2.356791450107405694e+01
-2.678468411569947705e+01,3.352031217980076576e+02,-2.086536567138260523e+01
-2.772574175462939294e+01,3.353992526267626886e+02,-1.872815698915336213e+01
-2.864666363262283255e+01,3.357470208876464994e+02,-1.672532775062116173e+01
-2.908654976240343615e+01,3.358342597243727141e+02,-1.455854482465124455e+01
-2.956508878535516516e+01,3.361882420382448800e+02,-1.209244968824582500e+01
-2.998772757613908269e+01,3.367439983692566443e+02,-9.778683511625482438e+00
-3.023906790587662741e+01,3.375262596722108697e+02,-7.528229323855960331e+00
-2.927543722414221605e+01,3.381152103179896358e+02,-3.346141499682435239e+00
-3.048771405800587786e+01,3.384712647764462190e+02,-5.448551577508617072e+00
-2.838688501054828706e+01,3.379924110908636976e+02,-1.499956544540538061e+00
-2.846266938772507871e+01,3.387730242778318939e+02,3.807293405217713200e-01
-2.832023600755022130e+01,3.394841740170990647e+02,2.207334884302763811e+00
-2.392748356454998060e+01,3.394151439284137268e+02,6.327008060215293384e+00
-2.185341794774384994e+01,3.393164921223249735e+02,7.311421462605547816e+00
-2.577619848119295654e+01,3.396448744627418250e+02,5.416688953581800803e+00
-2.779502526478133007e+01,3.401663381445632695e+02,4.107908498857646862e+00
3.415520471959224835e+01,3.356921231976995728e+02,-1.341246649246539135e+00
3.390981892338179193e+01,3.366458689367684656e+02,-3.509023671334222882e+00
3.323444263699427381e+01,3.383328616607741992e+02,-5.215894018744037908e+00
-6.744576794725889002e+00,3.415154047126246155e+02,-3.283576300342587473e+01
-8.991323759104204782e+00,3.420370676553475846e+02,-3.356601834271103968e+01
-1.068902681804296151e+01,3.407488446541080407e+02,-3.311426624798012597e+01
-1.262574365461439285e+01,3.394997807316977969e+02,-3.254004950660070961e+01
-1.502064208754909558e+01,3.398731854641819723e+02,-3.272022523017931661e+01
-1.741562850204849511e+01,3.394868584305818899e+02,-3.217106696507734398e+01
-2.002861611284950527e+01,3.390293622348430063e+02,-3.134256895771817852e+01
3.013302496183165147e+01,3.423494089162524574e+02,-9.925261970256332944e+00
3.130769373154965507e+01,3.412682083484826308e+02,-8.535434202514593949e+00
2.765705473473931164e+01,3.437294022033893270e+02,-1.273519022265383072e+01
2.481462298087607365e+01,3.449103364085003136e+02,-1.550008369233894356e+01
2.636157934406805481e+01,3.449874893606050250e+02,-1.381288934815982117e+01
2.871255601291402115e+01,3.441238243436217772e+02,-1.109137287840805897e+01
1.989242335879422896e+01,3.441024336076345662e+02,-1.937438383346509596e+01
1.806155831529404310e+01,3.445363501748059321e+02,-2.077785876145668453e+01
1.620437338702733854e+01,3.452059474642302348e+02,-2.232247295756454974e+01
1.436417429478281171e+01,3.439642461290450228e+02,-2.305322762024643168e+01
1.236435074194511330e+01,3.446278946490323278e+02,-2.460147343628844752e+01
2.159956102354626140e+01,3.455817802731213533e+02,-1.831296706817652975e+01
2.328703078450192265e+01,3.458721818393249805e+02,-1.681259889387558104e+01
3.234683981337976633e+01,3.399511187968315653e+02,-6.936840670323146441e+00
1.454262820276588819e+00,3.434422514033763605e+02,-3.089519357412734735e+01
-8.849744993740138455e-01,3.436789473540695781e+02,-3.200942704921921944e+01
1.068432516443133906e+01,3.453352392989538089e+02,-2.598440217076390724e+01
8.860386365353452476e+00,3.450621980030227292e+02,-2.708248247087971095e+01
6.987387378055050391e+00,3.452592777905419439e+02,-2.849957054036285342e+01
5.037948800118984494e+00,3.451814733021245729e+02,-2.977999814892814356e+01
2.981726164396925505e+00,3.449983697447772784e+02,-3.092755522900596077e+01
-3.131490638479623279e+00,3.440216070043703098e+02,-3.303468495805313410e+01
-4.926968945348185969e+00,3.428599249394305843e+02,-3.306949013080923550e+01
2.665391605927153407e+01,3.326789899062650306e+02,1.511751258334514247e+01
2.525294599199586187e+01,3.335770614238185203e+02,1.673336789199331420e+01
2.846385521824905140e+01,3.337804853515798982e+02,1.457640805477930357e+01
3.015407710995624413e+01,3.348998449296462354e+02,1.309001252732723231e+01
3.100608124673293275e+01,3.357149667547087688e+02,1.126318281293222867e+01
3.177123331662798478e+01,3.355875027414007263e+02,8.116526133376197549e+00
3.142525962445044030e+01,3.367495059011106378e+02,9.639253906332825750e+00
3.254414912683823502e+01,3.364078101747599021e+02,4.730982143352811420e+00
3.327274183247558881e+01,3.356989758525719481e+02,2.950627165574548627e+00
3.204815188607092580e+01,3.368108509320172175e+02,6.487903204528951306e+00
3.315193181079317952e+01,3.374657572310993601e+02,1.787691246386511779e+00
3.365751958350706019e+01,3.367821279993521557e+02,1.354467715030232000e-01
-1.959681059951135751e+01,3.409659309712138224e+02,1.003888999997220566e+01
-2.140031003551946043e+01,3.406258790446219109e+02,8.880678729346833222e+00
-5.285527416745292584e+00,3.384229312989978098e+02,2.460392118324312705e+01
-3.550610995263570935e+00,3.375811762843775341e+02,2.548282541328445205e+01
-1.550612764011404243e+00,3.370838323444132243e+02,2.644114263704878454e+01
6.502757963768579508e-01,3.367818391312304698e+02,2.731151335633124688e+01
2.927801448492063585e+00,3.365735328608722057e+02,2.813415630726523631e+01
7.013216834717344916e+00,3.356910906887409283e+02,2.810183257612199270e+01
5.383021479878536297e+00,3.368297822937004184e+02,2.904808049072733667e+01
9.554748576217701128e+00,3.356895767320554000e+02,2.777519481590281103e+01
1.187213709225220981e+01,3.359890742240470445e+02,2.735763737982080457e+01
-8.288870324416979685e+00,3.399348459506912263e+02,2.181096711880859118e+01
-6.994498852602879957e+00,3.393144697579469380e+02,2.322369908425424612e+01
-9.769424155126719356e+00,3.400914991424567120e+02,1.810889556257755117e+01
-9.599976851659251409e+00,3.409102401594936396e+02,2.049866846388572128e+01
-1.217417891396888230e+01,3.410542185212937625e+02,1.544960056767008183e+01
-1.106331924282706858e+01,3.410163462457239802e+02,1.710714203526297794e+01
-1.363983719581417020e+01,3.412738508947856531e+02,1.399497440325036912e+01
-1.541137905972070143e+01,3.415956523297779199e+02,1.279542195008290051e+01
-1.842670903739910315e+01,3.419625713349510647e+02,1.147564244600494199e+01
-1.687972003954318723e+01,3.425914710455057275e+02,1.276916902295010914e+01
1.519987781054151910e+01,3.359510593343337632e+02,2.554738365759995133e+01
1.733999865066498458e+01,3.363573640004801746e+02,2.456422722741871922e+01
1.392654013810329339e+01,3.366226510184444010e+02,2.706268978803182534e+01
1.973317060418242974e+01,3.352722020393953244e+02,2.187755821347064611e+01
1.952495898574195721e+01,3.367507715824871752e+02,2.347960550651745848e+01
2.255122807861135570e+01,3.339784767904370142e+02,1.881968168381691697e+01
2.294499821800305384e+01,3.357221269994424802e+02,2.012581650580574077e+01
2.151201917871085101e+01,3.361908874670641580e+02,2.152093955568840400e+01
2.425568473905998346e+01,3.347404801250056607e+02,1.838855652143530151e+01
-2.230215188165000484e+01,3.389034473256717774e+02,-3.035922959411610123e+01
-2.425094429542500052e+01,3.389620967841822221e+02,-2.933526255978717501e+01
-2.621820500487837791e+01,3.373188645972174413e+02,-2.629756965902995347e+01
-2.594338439753452263e+01,3.391137936437395979e+02,-2.821715562581899661e+01
-2.758018032396994812e+01,3.364444019780085000e+02,-2.265414222923609699e+01
-2.759353235704553242e+01,3.375327685278974172e+02,-2.493281514773604712e+01
-2.855652665208667429e+01,3.365066848656249476e+02,-2.065852194950616649e+01
-2.952386614075645355e+01,3.367556182415343642e+02,-1.871076795930219205e+01
-3.043463356844563350e+01,3.370978281669796957e+02,-1.663146826079115925e+01
-3.042995745360209980e+01,3.368924126403245509e+02,-1.422715994872063305e+01
-3.105257752945430738e+01,3.374101982192717628e+02,-1.216096454321532683e+01
-3.146735763574544364e+01,3.380469771999513569e+02,-9.971118213905187488e+00
-3.166604551162552994e+01,3.389792033016962023e+02,-7.708102646278351955e+00
-2.980679742883594940e+01,3.391819493458845614e+02,-1.397681917950514219e+00
-3.080119705821518039e+01,3.394776809634046799e+02,-3.446770319636488722e+00
-3.187515100674427870e+01,3.400429972460965473e+02,-5.547984976238648613e+00
-2.996407996836726539e+01,3.402267759918980801e+02,5.781622275171081071e-01
-2.952018656673918073e+01,3.410584757948990955e+02,2.754311096549994176e+00
-2.541807836154156774e+01,3.408750363067815670e+02,7.110576600399447500e+00
-2.329130093034173399e+01,3.404100201847059566e+02,7.714154274990459470e+00
-2.722729682932367723e+01,3.408739321916681888e+02,5.778583216459876937e+00
-2.899164965677041295e+01,3.417739128633084533e+02,4.720738671519470131e+00
3.358695488811803642e+01,3.378754859514024815e+02,-1.732764737308908565e+00
3.319282221693652701e+01,3.391232375654859652e+02,-3.445506583257863298e+00
3.255756977023960985e+01,3.406690048358722152e+02,-5.084151007199078975e+00
-7.259961328085143606e+00,3.433445688191231397e+02,-3.387574567129818348e+01
-9.615273831566932827e+00,3.439969925860565922e+02,-3.449677168883508926e+01
-1.120318567095247531e+01,3.426920550788941000e+02,-3.411420468373449921e+01
-1.289178255784613825e+01,3.412970001457539979e+02,-3.353809363008605260e+01
-1.494308596624456342e+01,3.419549921261711916e+02,-3.377508176347457436e+01
-1.679349890406594170e+01,3.415697776248694026e+02,-3.329798401852096390e+01
-1.907928194904637564e+01,3.408123614959830547e+02,-3.239178017863224568e+01
-2.142903446049285776e+01,3.407114935210692579e+02,-3.156291046450393623e+01
2.973972050476614726e+01,3.443668495910769707e+02,-9.297539309432305998e+00
3.080928201589648552e+01,3.433679404133194453e+02,-7.906001371152612478e+00
3.173906184594356716e+01,3.421504136170797210e+02,-6.525378100147413818e+00
2.731195542018528499e+01,3.460560234629171532e+02,-1.216586253282524765e+01
2.426516018170458366e+01,3.473737658450960453e+02,-1.554131039135609882e+01
2.569227645757848677e+01,3.468828142510769794e+02,-1.400189147101002618e+01
2.843866864359956992e+01,3.461757719831082341e+02,-1.039644138856335331e+01
1.975938683257283301e+01,3.462156774160748114e+02,-1.985459951535792911e+01
1.790741517369205482e+01,3.467252720246560216e+02,-2.141413348103769820e+01
1.609205471401491749e+01,3.473062503143167419e+02,-2.313483443775639614e+01
1.431304627578712463e+01,3.459763689062407366e+02,-2.393497393144160768e+01
1.247994216374710419e+01,3.467271112516295943e+02,-2.541476708913766913e+01
2.111087520047400190e+01,3.479281186312443310e+02,-1.866490166432669895e+01
2.266409814226060959e+01,3.479007641174101764e+02,-1.711834406556617694e+01
6.958986968318092714e-01,3.451755177231888752e+02,-3.206598947628756946e+01
-1.611841369236607147e+00,3.455842280444470589e+02,-3.309652580349809625e+01
1.052551667787132672e+01,3.471889882482181520e+02,-2.689690567949713085e+01
8.575555694169471721e+00,3.469347586459075501e+02,-2.815551108010156867e+01
6.527198313610662161e+00,3.470819422989647478e+02,-2.967380635670652822e+01
4.513112113741875930e+00,3.469111335771310110e+02,-3.088771801725550858e+01
2.286381548029581712e+00,3.466898792445643380e+02,-3.192941479367725321e+01
-3.841696268039245687e+00,3.461245549400822483e+02,-3.400075089700510489e+01
-5.495722397419235072e+00,3.446991442550897773e+02,-3.400548847528721552e+01
2.695127023599660987e+01,3.344062843397194342e+02,1.633107849252263577e+01
2.591949825237643523e+01,3.355315455927222388e+02,1.798797085169589138e+01
2.846940666089227534e+01,3.353363024909738215e+02,1.583828671915112452e+01
2.977186484787436882e+01,3.360681351509957153e+02,1.460762131143074072e+01
3.069020463934725385e+01,3.370947865232423624e+02,1.295578774973614600e+01
3.115273839260438749e+01,3.381015278618920661e+02,1.122566535158201972e+01
3.171542990793188821e+01,3.379561255784971081e+02,7.928896452309142973e+00
3.141151519394971814e+01,3.391165249704270650e+02,9.543701710683457407e+00
3.203304615874238692e+01,3.387568041250652868e+02,5.716116815095944048e+00
3.257052339429498033e+01,3.380553961196384876e+02,3.618426263867643655e+00
3.306109575352915186e+01,3.390448850461731922e+02,1.740397136155777957e-01
3.258559168531736816e+01,3.397664614472385551e+02,2.015231885694333869e+00
-2.026736552559609095e+01,3.426553375213910044e+02,1.133863506210161987e+01
-2.180611923053753287e+01,3.420226256108815619e+02,1.004384625568154377e+01
-2.370806321432840136e+01,3.416036749789357714e+02,8.697505104622464955e+00
-6.917251139556380934e+00,3.399662989838773797e+02,2.534603614496740676e+01
-5.173643379685861632e+00,3.392182782952168054e+02,2.658344143885915045e+01
-3.174286724867286136e+00,3.386495769227275332e+02,2.743529098795032439e+01
-8.229139662672566580e-01,3.382724646456118762e+02,2.826451882650431813e+01
1.526041218472973249e+00,3.380942299860488447e+02,2.910533754474462498e+01
3.756272097469910420e+00,3.378977586582694244e+02,2.975217604600362264e+01
8.420032289347471277e+00,3.368825848097282005e+02,2.923198344575316199e+01
6.758871894517086254e+00,3.377990663992014220e+02,3.021407186411734713e+01
1.061011566136726536e+01,3.371742389804102231e+02,2.903731543370060209e+01
1.273658058201732857e+01,3.376273884545025226e+02,2.870461501505839763e+01
-9.661381653961541360e+00,3.416845067157423728e+02,2.281219185259902815e+01
-8.409907068736560021e+00,3.408687849421334022e+02,2.414474261234911623e+01
-1.097093720532419781e+01,3.419236792844379238e+02,1.936089903865788386e+01
-1.101928662598818853e+01,3.426962803069280881e+02,2.160053064946713519e+01
-1.331691922822829710e+01,3.426613238453154509e+02,1.607782528140095479e+01
-1.223122715202525157e+01,3.425878831326154454e+02,1.786962246223041006e+01
-1.472959472047297069e+01,3.427310994932010999e+02,1.452844377612944271e+01
-1.599485247704575386e+01,3.438407256982405897e+02,1.462386416367259478e+01
-1.878311595499410913e+01,3.435591635951947183e+02,1.272656109686607095e+01
-1.749074923622409017e+01,3.444027119879729071e+02,1.415502209220354857e+01
1.627685652714962927e+01,3.373731431775838132e+02,2.636706183921776869e+01
1.842109742361783375e+01,3.378693181063848101e+02,2.538194806053482111e+01
1.493049843401395194e+01,3.381779528092262126e+02,2.807638933059087094e+01
2.039533272251463814e+01,3.385268095297634545e+02,2.456624885352703913e+01
2.154075153702773449e+01,3.376079479684611897e+02,2.287532710295585758e+01
2.345780021604005228e+01,3.376723499943954607e+02,2.158139396484263273e+01
2.474070478903217918e+01,3.366583647672723600e+02,1.976959617735086283e+01
-2.352011957323203717e+01,3.407597062643940262e+02,-3.058990890354518655e+01
-2.541740402057211412e+01,3.409335992208370953e+02,-2.945353393387551932e+01
-2.736253104680874770e+01,3.391921235180203666e+02,-2.690883666440681310e+01
-2.706462665685887714e+01,3.412974717735635863e+02,-2.817879800588995209e+01
-2.899439283027469116e+01,3.377791738349720845e+02,-2.300124796505597047e+01
-2.881691052382932838e+01,3.390907147323400181e+02,-2.508154513988991852e+01
-3.009693307076089752e+01,3.378853828051378514e+02,-2.101956900501885883e+01
-3.102274656720563684e+01,3.381074291515998311e+02,-1.897831582085663626e+01
-3.154285142731696823e+01,3.381281070712968813e+02,-1.474568714025444471e+01
-3.175614749949163951e+01,3.387159014040146303e+02,-1.697010651779527635e+01
-3.203888677708011556e+01,3.388745591082159194e+02,-1.240077778986281842e+01
-3.244891373397084067e+01,3.396845732836630418e+02,-1.011128698692697014e+01
-3.278502404746421917e+01,3.406310306421579526e+02,-7.837110174756642067e+00
-3.117781244116473260e+01,3.405449077766066921e+02,-1.654757350729532561e+00
-3.216614654314251709e+01,3.410598956469654581e+02,-3.647698482938412923e+00
-3.314473909039226385e+01,3.417163360057208479e+02,-5.812613286258610401e+00
-3.087827270453177420e+01,3.420374350075935581e+02,1.614504145858477457e+00
-3.141397274979733822e+01,3.416684250395595086e+02,-1.906019763602841977e-01
-3.058910410558511472e+01,3.429726348247661463e+02,3.530934043911789999e+00
-2.597665628529622239e+01,3.424025027603765921e+02,8.158354493464450741e+00
-2.774239351280797194e+01,3.421989902566047590e+02,6.751610801509658089e+00
-2.946285305701102075e+01,3.432737201579485031e+02,5.676328163595922405e+00
3.294328216434297474e+01,3.400803672333162240e+02,-1.542220033835292270e+00
3.254631099894076840e+01,3.414760993312980872e+02,-3.270445193498428438e+00
3.191039692858714716e+01,3.431128896390185901e+02,-4.614342415251968532e+00
-7.894165399897163482e+00,3.453010015552137588e+02,-3.466627904782284020e+01
-1.030601875851746030e+01,3.460675909762854303e+02,-3.514523455911915306e+01
-1.194361815920404979e+01,3.447469746113364977e+02,-3.490285453382517034e+01
-1.343625634318300399e+01,3.433288991838141442e+02,-3.447353527357758907e+01
-1.556645342663938436e+01,3.439334728380698607e+02,-3.445787546713179950e+01
-1.734315106844399423e+01,3.441514271282750315e+02,-3.413285380854604512e+01
-1.847427474384739199e+01,3.426442090012131985e+02,-3.334062572183277240e+01
-2.048885394880043265e+01,3.424845047969026837e+02,-3.261477169196280101e+01
-2.256293079029647686e+01,3.425088322992648386e+02,-3.176745363617466467e+01
3.030136929129334789e+01,3.455069491947680831e+02,-7.333001449008396122e+00
2.935243583470548856e+01,3.463618449293191475e+02,-8.685899688183596368e+00
3.119090685998941836e+01,3.444719408093769175e+02,-5.886993457098729010e+00
2.636179219080875669e+01,3.482910529807626290e+02,-1.245077860632490996e+01
2.755318798835536143e+01,3.481470864500561220e+02,-1.070624298625046933e+01
2.352905670017539208e+01,3.497562296843150307e+02,-1.561970960228986627e+01
2.490748530103276437e+01,3.491430835509740973e+02,-1.413287624944051757e+01
2.857996660940226974e+01,3.483258873343840492e+02,-8.889200217307482887e+00
1.936819750954585828e+01,3.483922093589149540e+02,-2.029067372297218697e+01
1.763421822141381767e+01,3.488628078759483060e+02,-2.207186628570566000e+01
1.583177680616781835e+01,3.494078014818931024e+02,-2.392801474444610221e+01
1.419347664026482825e+01,3.480903207253405753e+02,-2.480969080347722766e+01
1.217111896128114878e+01,3.487587056128795098e+02,-2.638497792483874349e+01
2.207661097022883823e+01,3.500279459352570370e+02,-1.730148883093943724e+01
2.051984813275168662e+01,3.501850979521969975e+02,-1.898799065381361828e+01
-1.247648832578278910e-01,3.471032610081028338e+02,-3.299899484251969284e+01
-2.340091754301067528e+00,3.478157406511671184e+02,-3.392709171832623127e+01
1.011671717503435630e+01,3.489437781638586671e+02,-2.787985322716520997e+01
8.064357567180625352e+00,3.486952305302806963e+02,-2.921051751449993361e+01
5.783702948401066912e+00,3.490172306687540527e+02,-3.075866164691081650e+01
3.539403757062115297e+00,3.485933013303498456e+02,-3.184453096864521626e+01
1.317384565189338552e+00,3.485209503280958074e+02,-3.276226306707087588e+01
-6.273182900272828988e+00,3.467553467177029347e+02,-3.473534667656618780e+01
-4.765809170303523246e+00,3.482760331359700672e+02,-3.468737555188936739e+01
2.759939672209019434e+01,3.362718761111739809e+02,1.746132413744992462e+01
2.654250881434798970e+01,3.373113069059588156e+02,1.913633891146047361e+01
2.920133938031650800e+01,3.371822418791570044e+02,1.643291383391367688e+01
3.032099714019683390e+01,3.383356974414953697e+02,1.478642374239916535e+01
3.087414030939838483e+01,3.393004373475291118e+02,1.304007282927333833e+01
3.115157763528560153e+01,3.403503188065418499e+02,1.124278557323771466e+01
3.157605808200045772e+01,3.400434790712731683e+02,7.626158361093811067e+00
3.129354510889987040e+01,3.413427300403143931e+02,9.489111497124692818e+00
3.216958283884436298e+01,3.401334082163937751e+02,3.991032346955112331e+00
3.172040843693968881e+01,3.410805518906096268e+02,5.851211792621718644e+00
3.248897606781226699e+01,3.414106965132928053e+02,3.646996834282028033e-01
3.212437542980852356e+01,3.419390783930248290e+02,2.401302959758069733e+00
-2.226167209923508494e+01,3.436163558046817457e+02,1.126327351669839949e+01
-2.063233744332245934e+01,3.444105924534869132e+02,1.271051834944976910e+01
-2.404750165348700008e+01,3.429481725755439356e+02,9.703096678934105768e+00
-6.919672461116514128e+00,3.407320954008181388e+02,2.745096443303200928e+01
-8.628165522605790727e+00,3.416002856442355551e+02,2.633621429758803956e+01
-4.883076609970811610e+00,3.402652953944324850e+02,2.873646721333860654e+01
-2.252777843543136260e+00,3.395972445755030549e+02,2.927421436632361207e+01
1.224794470541197278e-01,3.394292546095928742e+02,3.013446782758355269e+01
2.507260860041997219e+00,3.393261023329767454e+02,3.095601991547448861e+01
4.814690061610090055e+00,3.390568663108670648e+02,3.123096316946978845e+01
9.112556375051207525e+00,3.383797723350944011e+02,3.060003761977809944e+01
6.909446268630502708e+00,3.393024648985492036e+02,3.167679165701092359e+01
1.142702433694178943e+01,3.387345521265001480e+02,3.030170818479576766e+01
1.362554248753203900e+01,3.391925433848709872e+02,2.979042947050507095e+01
-1.110311783099762550e+01,3.433249691492322881e+02,2.394336455636376471e+01
-9.938988611227964398e+00,3.424815616665955531e+02,2.519580136527553549e+01
-1.245710256032809227e+01,3.436739086643423207e+02,2.026594499618478906e+01
-1.238588696487942542e+01,3.442943168043299806e+02,2.281613940763072534e+01
-1.468857238518898001e+01,3.441688120859475362e+02,1.649186356637838458e+01
-1.358518446270108271e+01,3.440947262811785663e+02,1.827941274602785882e+01
-1.615068979325585019e+01,3.453462212730952956e+02,1.650947381888843779e+01
-1.916483885379347640e+01,3.453409688569987566e+02,1.419467174803739340e+01
-1.763734258119890796e+01,3.459452322369020294e+02,1.582318428917261777e+01
1.718447616451007320e+01,3.388968262136778549e+02,2.725234367501741062e+01
1.924671698202841341e+01,3.395452342896728055e+02,2.635499285784192125e+01
1.577888596116959619e+01,3.397617914959350855e+02,2.898858811934979229e+01
2.131152052055406543e+01,3.401889928075050875e+02,2.541036970313788856e+01
2.255621419447381015e+01,3.391156844510027213e+02,2.356947394788461736e+01
2.439143748524627142e+01,3.395265466021352267e+02,2.264459162382857116e+01
2.543618702595126280e+01,3.383853824774108716e+02,2.088783413614440576e+01
-2.448180397582463286e+01,3.426180686305404492e+02,-3.076703250663829436e+01
-2.615439243240695077e+01,3.429336543740888033e+02,-2.966042198644204575e+01
-2.829658734436355871e+01,3.405974914595500422e+02,-2.651663325222911993e+01
-2.770488257668210963e+01,3.434168329513086633e+02,-2.831189434535090044e+01
-2.864361169376872596e+01,3.422673962903377856e+02,-2.660437541400014183e+01
-3.012956522148088112e+01,3.393334605530279191e+02,-2.321610543984656516e+01
-2.961159183000662409e+01,3.408445156440221808e+02,-2.482554989156521685e+01
-3.119065649028797083e+01,3.394714640600917051e+02,-2.119902058993502791e+01
-3.195634015700072439e+01,3.399064448185184801e+02,-1.901933701480211170e+01
-3.223255025631382864e+01,3.398502982754021673e+02,-1.450760671606740715e+01
-3.241031940518770682e+01,3.407658203305753091e+02,-1.656836852475740685e+01
-3.274535078646540853e+01,3.406769346921819306e+02,-1.217032565024288715e+01
-3.335052376489826997e+01,3.414874225132066385e+02,-9.988914515685230811e+00
-3.392955747833337909e+01,3.424752937233951116e+02,-7.973184867554031996e+00
-3.246534235100536137e+01,3.422393811100831726e+02,-2.062889556406361180e+00
-3.344429715163150263e+01,3.428044565217626314e+02,-4.147688355996674403e+00
-3.441063059184703832e+01,3.436436416403236080e+02,-6.201831643300625529e+00
-3.204569584923533654e+01,3.435666584091551954e+02,1.565534809762480606e+00
-3.257772144663150016e+01,3.432776896522313450e+02,-3.605320643000329284e-01
-3.081743838862896467e+01,3.446819126217646385e+02,4.513903786326508794e+00
-3.223321171389275719e+01,3.448052379247953354e+02,2.735035870759221055e+00
-2.795434905519570989e+01,3.437852846326368308e+02,7.491901513884084096e+00
-2.623879387338612545e+01,3.440572658372562387e+02,8.953036041752898910e+00
-2.931162917585756134e+01,3.451099218189701787e+02,6.375843183162823280e+00
3.245392119796279218e+01,3.421378279536064611e+02,-1.481057598927801422e+00
3.192526410392033398e+01,3.438883670209345951e+02,-2.775435440748942995e+00
3.118571692374158744e+01,3.457707120010203994e+02,-3.848362473546650619e+00
-8.674837794641018007e+00,3.473817899881230460e+02,-3.525726747741690303e+01
-1.108516941803840083e+01,3.482729817825213559e+02,-3.566529621930187233e+01
-1.255730665452686878e+01,3.469023777357880931e+02,-3.543145930380521946e+01
-1.423921774926798989e+01,3.454862307129852752e+02,-3.505952941757920627e+01
-1.632808283175981856e+01,3.462448034339589071e+02,-3.487458661880537392e+01
-1.845143205203813608e+01,3.460803193232281956e+02,-3.431791962632985360e+01
-1.950046254580305316e+01,3.443546647650815089e+02,-3.356884240671185893e+01
-2.154403752409452011e+01,3.442396582411070085e+02,-3.280992512913542214e+01
-2.351171891948650483e+01,3.442991971501741091e+02,-3.195378542682494327e+01
3.047715206793812115e+01,3.467804860038679635e+02,-5.566438779007761184e+00
2.956203756365317048e+01,3.478719013992442228e+02,-7.188067356485866810e+00
2.664729247941468770e+01,3.502742920511633429e+02,-1.102546414447043865e+01
2.546417390105873579e+01,3.505337001022844561e+02,-1.268387651402257355e+01
2.767166410386052888e+01,3.502606173313922682e+02,-9.278442515981861760e+00
2.421316948036293937e+01,3.517945538252003530e+02,-1.392615085993483603e+01
2.283060371805120425e+01,3.519585888965602294e+02,-1.576319904434107499e+01
2.871048218589127998e+01,3.502112200636396437e+02,-7.320334263468007308e+00
1.888398501349319858e+01,3.505446458832251437e+02,-2.074323651508323962e+01
1.726801013620140068e+01,3.509553243190829335e+02,-2.262290409990295359e+01
1.557822761560716529e+01,3.513840599971714482e+02,-2.447097455714341407e+01
1.375178684469519297e+01,3.501690789376937687e+02,-2.573183871468130590e+01
1.163284070949122295e+01,3.507202366669598064e+02,-2.738089745396672114e+01
2.138309258832043724e+01,3.521664680042507030e+02,-1.755033877556550337e+01
1.990914944331133896e+01,3.523286294056701990e+02,-1.932739372699256819e+01
-7.488366743331961173e-01,3.494316566526542260e+02,-3.371920567598117202e+01
-3.448822295810280547e+00,3.498470385540906022e+02,-3.461084251618422059e+01
9.464800568447868656e+00,3.507275199561464092e+02,-2.883966672520105234e+01
7.514127657362381640e+00,3.504434212450874497e+02,-3.005068574708012008e+01
5.917827653600612692e+00,3.514252056884811282e+02,-3.111914185929206056e+01
4.082981363332321756e+00,3.506548537405633965e+02,-3.192710244873589431e+01
1.920552038606439638e+00,3.503163134300230013e+02,-3.285062084956250317e+01
-7.082258662149024886e+00,3.488848029777352622e+02,-3.526969574534891194e+01
-5.752819308005840071e+00,3.505581683271639122e+02,-3.525499648904904859e+01
2.833798901232097833e+01,3.379818324078682394e+02,1.826000948519920186e+01
2.728464988361704968e+01,3.389002503803807258e+02,2.000298444577060053e+01
2.976244095543076540e+01,3.390827492024601497e+02,1.674546919210133211e+01
3.052014622676798439e+01,3.406002616481726477e+02,1.497029547802664240e+01
3.093351827667084919e+01,3.412883094706392626e+02,1.305059059160934254e+01
3.108530015968911187e+01,3.426231035497287962e+02,1.144579346884731308e+01
3.133660879070336236e+01,3.423432785817556123e+02,7.573553635094974368e+00
3.110193106340531699e+01,3.435051604384856319e+02,9.336922716242170850e+00
3.182104930402429588e+01,3.422241062599725296e+02,4.219899945593752477e+00
3.139532288711049546e+01,3.435294666531402186e+02,5.745891442427769391e+00
3.197192906842850135e+01,3.435595642579910418e+02,1.275907933848898779e+00
3.202714283113607507e+01,3.438334322840831305e+02,-6.136620870223481461e-01
3.159221682566790435e+01,3.442386951575060152e+02,3.644835925327974735e+00
-2.430766122526677009e+01,3.444848298827467374e+02,1.058878807262522059e+01
-2.249140227001695891e+01,3.456458669796625145e+02,1.247845939325601883e+01
-2.092944005543042962e+01,3.464453633797828616e+02,1.408796675790711816e+01
-8.847883663855812486e+00,3.422936269547581674e+02,2.842419906755204195e+01
-6.970378654200890089e+00,3.416780308096232943e+02,2.958587077394384579e+01
-1.048081401143817715e+01,3.432804082225298430e+02,2.737725266070260588e+01
-3.525868000373539424e+00,3.408463367366372836e+02,3.047947327429845288e+01
-5.357495727113192885e+00,3.418124816046552041e+02,3.111057064510578130e+01
-1.413781645814759846e+00,3.407078864284594601e+02,3.129007744720908590e+01
8.181064979653327462e-01,3.405684373363483815e+02,3.200604417346983155e+01
3.084321838138992078e+00,3.405566126512734400e+02,3.265247092409735075e+01
5.150541746041331415e+00,3.405258560211132135e+02,3.292003088203848904e+01
8.648016875690425209e+00,3.398647292817754533e+02,3.203723952860688229e+01
1.052349802369512233e+01,3.400554648048322406e+02,3.173750090231228782e+01
7.124032767134897526e+00,3.409510744586750093e+02,3.320849554937768744e+01
1.251592936368960096e+01,3.403985503106378587e+02,3.132361502477798609e+01
1.454169546369264054e+01,3.409253951858101459e+02,3.067320135934421899e+01
-1.161862510324696629e+01,3.441150145584990696e+02,2.615301359845478757e+01
-1.274412394849800734e+01,3.450173354159719565e+02,2.493636193708164228e+01
-1.420380350430279748e+01,3.452616372895961945e+02,2.023832850177367249e+01
-1.364478724985272073e+01,3.452158742823671105e+02,2.196826309779064701e+01
-1.406940632603806129e+01,3.460757842314222330e+02,2.402315359720196142e+01
-1.522382251052204438e+01,3.456113523386118231e+02,1.853091188661715449e+01
-1.673197122812638327e+01,3.468777445150243466e+02,1.835212406484584591e+01
-1.933926284027457854e+01,3.470704370478222245e+02,1.574351992398768374e+01
-1.804520342219022311e+01,3.474732064003425194e+02,1.742100980669524546e+01
1.800406642724851025e+01,3.406534555014546299e+02,2.810685165092460380e+01
1.998915942724108774e+01,3.413799362657246661e+02,2.720306309707916981e+01
1.655721599687715440e+01,3.415299035041794582e+02,2.969091008938766763e+01
2.199559430224167045e+01,3.420138062101923424e+02,2.625339671126125651e+01
2.334946325791334587e+01,3.408007681173903052e+02,2.448192353578996716e+01
2.524021122618405855e+01,3.412874574727007371e+02,2.352306794774526466e+01
2.625197822804554804e+01,3.400466333579104798e+02,2.179407183486928545e+01
-2.529382813231912053e+01,3.446287670730268928e+02,-3.104797308549409962e+01
-2.699299430952812884e+01,3.450141096254038189e+02,-2.989170008558657798e+01
-2.851274635542967673e+01,3.455986699768160975e+02,-2.861157666428714208e+01
-2.922930896838177262e+01,3.441222024011975122e+02,-2.663478907043745991e+01
-3.003563778628391390e+01,3.428608223630055249e+02,-2.471101658089477127e+01
-3.074990592634758713e+01,3.411817479115546234e+02,-2.292027317414779475e+01
-3.179223020634381669e+01,3.414595991291112114e+02,-2.085411313912918985e+01
-3.258290422341828219e+01,3.420453775723706258e+02,-1.857619650030822811e+01
-3.287749965835087096e+01,3.418984428515285003e+02,-1.407611476555142360e+01
-3.316753353630505785e+01,3.429495357910643065e+02,-1.613415155380478438e+01
-3.359845772929789121e+01,3.427053595231404870e+02,-1.187723304747965258e+01
-3.442301987526075635e+01,3.433619556918733906e+02,-9.973372461990198445e+00
-3.516794375981729104e+01,3.444085472299941557e+02,-8.209076771564156161e+00
-3.369134994830868379e+01,3.438923387095306907e+02,-2.641748255430375281e+00
-3.475182192346284182e+01,3.447558167905262394e+02,-4.723048856370841264e+00
-3.571159558458727190e+01,3.456619384876694312e+02,-6.881899191131893190e+00
-3.348899642499914364e+01,3.450990966859608307e+02,5.966470957592200364e-01
-3.381511019095279380e+01,3.448062732858793424e+02,-1.223151077740100234e+00
-3.174102659385636471e+01,3.464947185577342452e+02,3.790014388397996647e+00
-3.021681022142106343e+01,3.465804245954963108e+02,5.321266506052112710e+00
-3.322362230233937197e+01,3.464824191165022853e+02,2.045621150071434080e+00
-2.776287354469283386e+01,3.457217014718297605e+02,8.010115747548912424e+00
-2.608780221817663048e+01,3.459291476308996494e+02,9.585315858358256946e+00
-2.857958434426058147e+01,3.473135948129183248e+02,6.813699784557488037e+00
3.146678957879262128e+01,3.458139912619052438e+02,-1.708318022656936108e+00
3.080731450767492419e+01,3.478288016019213842e+02,-2.188631798787959326e+00
3.038827968752982400e+01,3.482890401353502625e+02,-3.897850204030884669e+00
-9.404713738239154353e+00,3.493080284796757837e+02,-3.570733505121560825e+01
-1.118582921608834724e+01,3.505903657685400390e+02,-3.609965527772499172e+01
-1.311150825488642724e+01,3.492231407705488095e+02,-3.589765661739959057e+01
-1.454494925691718521e+01,3.477377682553905629e+02,-3.549044100618995401e+01
-1.632675388215860579e+01,3.484380698721462863e+02,-3.537623914682817627e+01
-1.810447865029154002e+01,3.479660903041823872e+02,-3.487641056558399555e+01
-2.055859901380342336e+01,3.460217121601261852e+02,-3.366610778311388685e+01
-1.997975203190523530e+01,3.478665107821848892e+02,-3.434141318884869776e+01
-2.258445478880106805e+01,3.459935292968595490e+02,-3.289851059040110215e+01
-2.432729853118011931e+01,3.463227722682960348e+02,-3.222695123605856082e+01
2.972051388635338753e+01,3.491348555232528383e+02,-5.599481002895561943e+00
2.548870178835694844e+01,3.524968536726636898e+02,-1.167859711707606785e+01
2.659790049241329513e+01,3.523724384463271804e+02,-9.908226037437071199e+00
2.761677305724253983e+01,3.522194742438840080e+02,-8.127055143625511846e+00
2.321021687023251090e+01,3.539822903446394662e+02,-1.435083557786729358e+01
2.437808262185286168e+01,3.540503177245883535e+02,-1.258387418705968308e+01
2.192655728121328806e+01,3.541083668101215949e+02,-1.612982398204707124e+01
2.820808082336683498e+01,3.527944663866815063e+02,-6.328089893847016256e+00
2.904904631397815962e+01,3.513139188624496114e+02,-5.520012919814860197e+00
1.838961284538621044e+01,3.526073258964398178e+02,-2.118813086386676758e+01
1.679866423553685095e+01,3.529654798552075476e+02,-2.308023608340810640e+01
1.510410234253463102e+01,3.534818833773120446e+02,-2.486061769756412332e+01
1.385780357852820721e+01,3.520777229785810505e+02,-2.602236002040868712e+01
1.019962166606855192e+01,3.525987528508489959e+02,-2.866716171025056425e+01
1.212906131116067776e+01,3.525616997219777318e+02,-2.736296890253431968e+01
2.062463674870755526e+01,3.542198758334446325e+02,-1.794157601523127710e+01
1.924584868325001707e+01,3.543542272529514889e+02,-1.979843480803790357e+01
6.660964488958898144e-02,3.515314644044265151e+02,-3.370685421487170430e+01
-2.186543527524625219e+00,3.512032576550030853e+02,-3.442597233730587192e+01
-4.374039007739754403e+00,3.523127978465138881e+02,-3.512982867238492446e+01
8.060043255750569458e+00,3.525512582912256221e+02,-3.003286639430331206e+01
4.154020013694939450e+00,3.529221324405883706e+02,-3.216497782663648763e+01
6.088432913900549082e+00,3.533924773528440824e+02,-3.124821385822085773e+01
2.248505231725238751e+00,3.523395489395027766e+02,-3.294085384172561959e+01
-8.305218699064356613e+00,3.508176783687114835e+02,-3.576268856184375267e+01
-6.993078805973391709e+00,3.524061093238849480e+02,-3.574090042134007206e+01
2.901033477716514142e+01,3.396803049268133350e+02,1.880264255418797603e+01
