-9.561121777365251262e-01,1.792258974481926828e+02,6.125881436342204722e+00
6.433475360973694990e-01,1.773076856654623157e+02,6.696281905699148496e+00
2.162818019598709895e+00,1.754375842887885142e+02,6.916825471316968788e+00
-6.814076443084424284e+00,1.813771903370443113e+02,1.216316231451095575e+00
-5.018836789972830559e+00,1.808215112807299363e+02,3.255347144048712948e+00
4.662799955035609401e+00,1.755923743933617516e+02,6.618461483018297287e+00
6.207557868146118096e+00,1.737116352611677428e+02,6.122005856230320120e+00
1.452297164039259414e+01,1.695898313746488384e+02,1.444125529809468844e+00
1.321937660410671889e+01,1.716045799689188982e+02,2.184367458350251923e+00
1.175937060892146668e+01,1.734460578035327671e+02,3.011589963145652860e+00
8.240608623476461503e+00,1.748492325728545609e+02,5.123036756909694844e+00
1.045556389824462329e+01,1.751825682017898487e+02,3.807137890542705350e+00
5.888366920457544396e+00,5.517417213255509267e+01,-1.284871437123073434e+01
7.844821594579848956e+00,5.464594507360597220e+01,-1.241122516976827939e+01
1.030195221955266049e+01,7.005782259935504896e+01,5.476056711032256885e+00
1.115734351657832590e+01,6.657560239955769532e+01,4.607130373383721889e+00
9.985284411993440301e+00,6.808189708183425637e+01,5.916038791265487262e+00
1.310175052239967641e+01,6.524548939993674423e+01,1.436401063288673896e+00
1.212113541965034003e+01,6.471500065303972349e+01,3.351080232914139145e+00
1.416701416483032361e+01,6.185070683105381306e+01,-3.578047221047086168e+00
1.300104075814387272e+01,6.293953776343686712e+01,1.778279030038842023e+00
1.363874504254859943e+01,6.152657780858449854e+01,1.596338130247527687e-01
1.410471003101037724e+01,6.040863326539518141e+01,-2.023410371471143776e+00
1.412234589732128143e+01,5.969056667174361053e+01,-4.540829400330046894e+00
1.380310622952492317e+01,5.828993062168473216e+01,-6.400844346756635161e+00
1.315632775550356648e+01,5.693847616621758334e+01,-8.061413879187746545e+00
1.089623886491970950e+01,5.594979221194191155e+01,-1.072470783472341438e+01
1.227796648674187985e+01,5.536770068086236307e+01,-9.443023707370976183e+00
9.733953131642010703e+00,5.426877070560152561e+01,-1.159633686809890207e+01
-1.025332927501859714e+01,5.540023987811913031e+01,2.779689328575400964e-01
-6.550695477005694656e+00,5.538708058178495719e+01,6.312404222433288581e+00
-5.108200875477550085e+00,5.659909156227536187e+01,7.922376171894583763e+00
-7.922512110706183108e+00,5.417731553850665449e+01,4.549060551578929079e+00
-9.231803902338374002e+00,5.490651012503963102e+01,2.413970458049581325e+00
-3.654139422394399261e+00,5.777768580940386300e+01,9.302739284055798308e+00
2.478161226683443630e+00,6.250338025072358050e+01,1.123489632075898115e+01
9.077977235724361549e-01,6.099633664581088510e+01,1.151646186293718443e+01
3.914350481465234566e+00,6.412469601211998338e+01,1.061462005419558885e+01
5.698560526369838897e+00,6.475864349323028080e+01,9.608113923455206873e+00
-6.074237198756875511e-01,5.976744826149655410e+01,1.123322038862010608e+01
7.612833210256912508e+00,6.548042714148691346e+01,8.211521056674680352e+00
9.483468949681359561e+00,6.593383529395897824e+01,6.522244573222552688e+00
-2.146634537014287414e+00,5.878245436054415052e+01,1.043508076329696976e+01
-1.084259077741181443e+01,5.367084633728094900e+01,-1.286949945729848110e+00
-1.121656103726870057e+01,5.439519403909509521e+01,-3.307806159706728977e+00
-1.117608323367395329e+01,5.508955507957225706e+01,-5.464535410765503087e+00
-1.075596163153208451e+01,5.397838626407040152e+01,-7.142587234053049627e+00
-9.857129621233212902e+00,5.492538232739232740e+01,-8.791213221461781302e+00
-8.488195290224769707e+00,5.342721413643567274e+01,-1.010079759970973612e+01
-6.702845675941586201e+00,5.405175329282669594e+01,-1.108906905811299737e+01
-4.810046757414371932e+00,5.467190694833497844e+01,-1.178552160032470297e+01
-2.704996190524258992e+00,5.349444506493923512e+01,-1.240167249685215367e+01
4.705954925278277301e-02,5.330524682190151253e+01,-1.293270800276263088e+01
2.181200651504207499e+00,5.402598417229662431e+01,-1.309599904715605412e+01
4.307819239758355678e+00,5.345343303460867901e+01,-1.311413195706887436e+01
1.673795226825778215e+01,1.700424414101589434e+02,1.259366836037045800e-01
-7.056513898474353397e+00,1.883622732763504359e+02,-1.372027293348600807e+01
1.336164531551570889e+01,1.820529955909791795e+02,-1.478199729076720814e+01
1.170202892286624241e+01,1.831575345126377954e+02,-1.544930563490343189e+01
1.995475970036556390e+01,1.728758375791445587e+02,-1.995099564932189651e+00
1.777506544832140634e+01,1.723769483012204091e+02,-5.002326320021097672e-01
2.222327683702349432e+01,1.755180724633460727e+02,-5.174093465537282555e+00
2.114781028882769931e+01,1.750478783038501263e+02,-3.094834597462750025e+00
2.226811666920602306e+01,1.768247171945198204e+02,-7.177615454402157980e+00
2.175053146531477566e+01,1.783324403298931031e+02,-8.729042856649670057e+00
2.089514196316222439e+01,1.798083434467563677e+02,-9.975419876575998046e+00
1.821223198630583440e+01,1.836080299626220551e+02,-1.238054052401905381e+01
1.959459616535106719e+01,1.830760023961882155e+02,-1.138636883181299453e+01
2.086688309728429402e+01,1.821961368105179133e+02,-1.023610460777246089e+01
1.511659939489954851e+01,1.831587228739318505e+02,-1.409474409559565800e+01
1.675941309277174796e+01,1.842764092198375465e+02,-1.330856438456284252e+01
3.696129226748096741e+00,1.857197196764946625e+02,-1.722543120174596254e+01
-6.184551818345518370e-01,1.866508258887899103e+02,-1.726941876392197628e+01
1.622253632987845862e+00,1.874597473628913917e+02,-1.742783961587404917e+01
-2.667815718961339400e+00,1.879424298588606064e+02,-1.683088906284910280e+01
5.932356340866768107e+00,1.860386239202697425e+02,-1.693163355246581858e+01
-4.409555361750598479e+00,1.894829918282109986e+02,-1.619872576673000708e+01
-5.838180163692360480e+00,1.890884765769230285e+02,-1.516914953907525643e+01
1.006667916800337892e+01,1.846890603424740505e+02,-1.601694913131180442e+01
8.332290623625310033e+00,1.863978134077116522e+02,-1.650275124744339905e+01
-8.408659500365978090e+00,1.844878906245605208e+02,-1.911647562507042153e+00
-8.861142417377450897e+00,1.854704691275721018e+02,-4.160311422991000541e+00
-8.904246090236092925e+00,1.870222140177130541e+02,-6.225418399358098043e+00
-8.635676337057009988e+00,1.878867698495575382e+02,-8.536388735200446831e+00
-7.550856741464919253e+00,1.839371013214236257e+02,9.433725842529128158e-02
-8.200798360330725956e+00,1.888692770255790663e+02,-1.062972676136007522e+01
-7.638960189503013254e+00,1.899873112349940243e+02,-1.253489931689527026e+01
-2.777247476245019442e+00,1.811540158945448695e+02,5.042642023759682957e+00
-3.618732824527768344e-01,1.813913035769288911e+02,6.291711616125681417e+00
1.378860088723939725e+00,1.794247704306485218e+02,6.784136547282169971e+00
3.016782335654704994e+00,1.774069303030159972e+02,6.865535903903925430e+00
-6.075985888221651976e+00,1.832344679362085742e+02,2.128663043967506496e+00
-4.204141551666609189e+00,1.830625209733709085e+02,3.927965768091574716e+00
6.938463993926360374e+00,1.765577085646017110e+02,5.792321832566919682e+00
5.408611090829007040e+00,1.780189813394537168e+02,6.380140381304745034e+00
1.553510415338509532e+01,1.719379042288957180e+02,8.413256025771289615e-01
1.424109266705148080e+01,1.738826721313930932e+02,1.577533323003954990e+00
1.285516798459967980e+01,1.757634982135206485e+02,2.353453345597856128e+00
9.249981625187119860e+00,1.771844787627974824e+02,4.530123223625139417e+00
1.148071606817180168e+01,1.775063907289891461e+02,3.156197359631008226e+00
6.309274944488084458e+00,5.297418209111437193e+01,-1.290792464254385052e+01
8.450973238643904040e+00,5.263135665169244248e+01,-1.230158471439913725e+01
1.075735057562863517e+01,6.414521978741602481e+01,5.249058137589885931e+00
1.193999267828057498e+01,6.229341054915271059e+01,3.784778575460858718e+00
1.283109164227617072e+01,6.037467490974169237e+01,2.309300903097426527e+00
1.373907251805534280e+01,5.921907946008767709e+01,-9.160595645789726404e-02
1.415662248659510603e+01,5.820081065178726476e+01,-2.469128654924137578e+00
1.417351569859653715e+01,5.721253024786346941e+01,-4.524897977576664232e+00
1.385303707100971948e+01,5.589042795361716287e+01,-6.391682346887741062e+00
1.327842780675728029e+01,5.464144623814233626e+01,-7.954704606796795474e+00
1.137169910049574462e+01,5.361539261492595898e+01,-1.045890248183802740e+01
1.265863954508352940e+01,5.301102063429895850e+01,-9.040579110541568042e+00
1.028709116144341706e+01,5.199840080418039889e+01,-1.139588636325132143e+01
-1.013340714025750344e+01,5.302104347929517303e+01,7.035681481862461339e-01
-4.914452099872024249e+00,5.424547987929423698e+01,8.129083390613143223e+00
-6.384704226667736293e+00,5.299672035333117748e+01,6.587693071231312203e+00
-3.455745356624299269e+00,5.545364955302746779e+01,9.503524548632212188e+00
-7.750847297305643480e+00,5.182759891874579949e+01,4.858463921468533897e+00
-9.121624625903343997e+00,5.266711779243035352e+01,2.738370140732886426e+00
-1.914269597408690293e+00,5.649828527619551011e+01,1.063992451879063061e+01
4.550231290496615344e+00,6.217150862278802492e+01,1.038565471253400574e+01
2.585494159980060047e+00,6.041683435985579820e+01,1.129624602024245661e+01
1.038830954451760213e+00,5.885216836546129571e+01,1.162682623451228459e+01
6.899350244368111618e+00,6.308389402264896262e+01,8.872209911251029979e+00
-3.636658966273823568e-01,5.751780713506613552e+01,1.144924619166532231e+01
8.946687851244512046e+00,6.360834171449879193e+01,7.162347387649079522e+00
-1.081230980575503864e+01,5.123122185163818187e+01,-9.264829538007965937e-01
-1.122298727741130264e+01,5.210184474691870093e+01,-2.936179911827110800e+00
-1.122531316922747635e+01,5.293131876299402450e+01,-5.044253236711348620e+00
-1.085662702394905033e+01,5.170156296724533007e+01,-6.879284253242015978e+00
-9.899683149109158364e+00,5.258686785476017178e+01,-8.703308341287932848e+00
-8.640779465157374162e+00,5.113949232894957930e+01,-9.983631439435246335e+00
-6.955176878361061910e+00,5.188296468592162114e+01,-1.098112230420863966e+01
-5.004811464696900636e+00,5.263679812952035775e+01,-1.175509390434242718e+01
-3.527492213179461267e+00,5.113466873920696543e+01,-1.224783503545968699e+01
-1.511953226938318906e+00,5.178835992249518227e+01,-1.272620225163365859e+01
3.908292204058962938e-01,5.089036873694414709e+01,-1.311140807173798706e+01
2.353778652622642298e+00,5.200027507174473840e+01,-1.321633613284154585e+01
4.563356555791013847e+00,5.118226439493337665e+01,-1.324561040207283469e+01
-6.717758015023861162e+00,1.907986070710159083e+02,-1.418718233678128371e+01
1.356798747681978590e+01,1.843536655755002869e+02,-1.485315201842001187e+01
1.204101426671763342e+01,1.856314995492687387e+02,-1.549975841307895763e+01
1.887060896104061314e+01,1.746233733024729133e+02,-1.220525859320161999e+00
1.658493476521804766e+01,1.742390998349263782e+02,2.211127419358405177e-01
2.179492985118510262e+01,1.772376498715964317e+02,-3.862717726599612433e+00
2.245830951126097474e+01,1.781392535563888941e+02,-5.720741250497965780e+00
1.988975775496918175e+01,1.766576145228136170e+02,-1.963037217062762352e+00
2.237508725389575659e+01,1.795065589624027496e+02,-7.478930926915452915e+00
2.184145238395879218e+01,1.809763241461133703e+02,-8.921895797996185706e+00
1.968563248408417365e+01,1.854100645491917589e+02,-1.147692725234193745e+01
1.829021358276222031e+01,1.858856711913906565e+02,-1.249226847743345559e+01
2.090186583632972273e+01,1.846180260238598692e+02,-1.039291898361254596e+01
2.195013787608927203e+01,1.836284235461216383e+02,-9.093119994127647487e+00
1.525792379810313015e+01,1.854316373129962017e+02,-1.419820264995086490e+01
1.680738554605845536e+01,1.864457707518201062e+02,-1.345147734090153335e+01
3.910040219874792555e+00,1.883434357889651096e+02,-1.734635508705542861e+01
-6.168449867591725422e-01,1.890912423968627536e+02,-1.732457356830158801e+01
1.475196266590558025e+00,1.898603248842468645e+02,-1.750021001277666244e+01
-2.633225003224740846e+00,1.900757833517860433e+02,-1.692414060580246371e+01
6.356852144422131090e+00,1.882247911863783258e+02,-1.701059520897835853e+01
-3.855698140830579490e+00,1.917576559318116836e+02,-1.654860819927256443e+01
-5.519295743352824246e+00,1.913650044303832942e+02,-1.554613350736882893e+01
1.044780227453929200e+01,1.871482156698768335e+02,-1.606577007607447172e+01
8.619621946400970458e+00,1.887822650070614827e+02,-1.661263739481059787e+01
-8.513625118046896034e+00,1.867490416280393504e+02,-2.285897106944460688e+00
-7.788306963543107031e+00,1.867568097909254732e+02,-3.676963281843441678e-01
-8.818856905701302651e+00,1.879091291041953866e+02,-3.976984894588063923e+00
-8.899865500676646946e+00,1.894082748789148809e+02,-5.321282361254638715e+00
-8.815504646385765142e+00,1.896530943962243327e+02,-7.206556518963360247e+00
-8.529264987933242281e+00,1.905558086747631421e+02,-9.183719111437937954e+00
-6.816175049474516356e+00,1.855750431419272104e+02,1.215539054021306242e+00
-8.060926053939468261e+00,1.915713566462618473e+02,-1.117207122216787241e+01
-7.356956704839017647e+00,1.925781678777537138e+02,-1.309467139018884296e+01
-1.872169744987612461e+00,1.832820558476315114e+02,5.525358197705031671e+00
5.841970236251903259e-01,1.834401926044747313e+02,6.547931693008919751e+00
1.948972021877869665e+00,1.815700726057568204e+02,6.807909688063311648e+00
3.623371683472845106e+00,1.795702116119960579e+02,6.773579859270018488e+00
-5.371551362855591094e+00,1.854355999197427423e+02,2.858677321651882153e+00
-3.449297174243053377e+00,1.851793750465498931e+02,4.444118808663198195e+00
7.938170210686282147e+00,1.790810612076777204e+02,5.294075610626848061e+00
6.025853283943282790e+00,1.802968764655861378e+02,6.167064625200943340e+00
1.517729969952180191e+01,1.761616150214595677e+02,1.019610420643672910e+00
1.383164090757348319e+01,1.780483726692880282e+02,1.745659629433532700e+00
1.030728668960539629e+01,1.793850872189688914e+02,3.849169772350915508e+00
1.252993917959358861e+01,1.799090663241509844e+02,2.471300828565425434e+00
7.080161088780106304e+00,5.114072596672710347e+01,-1.284281939129288475e+01
8.996058840335866336e+00,5.042673118011164490e+01,-1.220972635631057202e+01
1.031807407784063813e+01,6.187593873109084086e+01,5.906706704395515040e+00
1.141863196517665102e+01,6.013163307613634601e+01,4.680536524584898217e+00
1.320217113404366849e+01,5.799061461268422590e+01,1.623642486210847835e+00
1.212033520399318220e+01,5.838043708808197607e+01,3.766772818604224859e+00
1.389769738888956141e+01,5.687508289246898130e+01,-5.100583298281939904e-01
1.422631019129038776e+01,5.586935444183694699e+01,-2.628220580036682463e+00
1.418117118447632663e+01,5.476746452257994235e+01,-4.744147386208059203e+00
1.382949738073661905e+01,5.327067137408761255e+01,-6.648297484947104152e+00
1.188307133200499166e+01,5.119020192145002568e+01,-1.012125106015070841e+01
1.333353314625637154e+01,5.147327458259513122e+01,-7.999587193133784524e+00
1.071012765843455483e+01,4.965660847827571445e+01,-1.126422513259360869e+01
-1.010424013098590379e+01,5.052800768058504133e+01,9.935023657619339588e-01
-4.805718834828679675e+00,5.175864441304219810e+01,8.292273547539616985e+00
-3.257810140491955941e+00,5.304062669128346386e+01,9.683818060175138243e+00
-6.340268103655340326e+00,5.039638517229432324e+01,6.693900218833462645e+00
-1.705388833805754567e+00,5.420931644128302196e+01,1.084149457426341634e+01
-8.153566058179642084e+00,4.942151355666924673e+01,4.425044358683127399e+00
-9.069856461526821789e+00,5.054705341354594594e+01,2.954867502006099045e+00
-1.301800558407963937e-01,5.527781440196134355e+01,1.162312740076856166e+01
6.229805331890180042e+00,6.092931162025188740e+01,9.454412756062332335e+00
4.204415325398734637e+00,5.980588816676988984e+01,1.067708898658647243e+01
2.631254696722695741e+00,5.813167208548428277e+01,1.139645335553645822e+01
1.246690361148145243e+00,5.661485540411866424e+01,1.174740719100530839e+01
8.380558891355612161e+00,6.137089563951793991e+01,7.786813440109536799e+00
-1.079031308561973290e+01,4.872426116449230449e+01,-5.072022220842455908e-01
-1.124648233493159211e+01,4.976009276081638433e+01,-2.585860564172605791e+00
-1.130613325440729611e+01,5.074010942449723416e+01,-4.724705651079318613e+00
-1.096913123703530246e+01,4.952456202239364558e+01,-6.663561519176194992e+00
-1.003548552270766514e+01,5.029079449856980233e+01,-8.540605090304826064e+00
-8.913456770684851094e+00,4.880796976173996171e+01,-9.806917558080977315e+00
-7.310187207603065396e+00,4.955309445971524696e+01,-1.083816873221638133e+01
-5.494224325807078202e+00,5.037113928527081441e+01,-1.161421947957766143e+01
-3.787675040579537189e+00,4.877454734546353876e+01,-1.227793392254961446e+01
-1.767772504908404763e+00,4.953100896983082890e+01,-1.279078039982039705e+01
1.276305690966701434e-01,4.855326090280665596e+01,-1.321078535646186758e+01
2.317520935361498502e+00,4.986172028462362960e+01,-1.334212055109329498e+01
5.775247602580829032e+00,4.960168817278096753e+01,-1.321525424663802895e+01
3.989185191930160634e+00,4.869345087743086964e+01,-1.342918245943313416e+01
-6.365661077744828589e+00,1.932811779904970138e+02,-1.468021374600516538e+01
1.381147277169073995e+01,1.867429876455419731e+02,-1.493552244360235903e+01
1.241423126962363988e+01,1.881220323610513390e+02,-1.554272956328936317e+01
1.749453273479555904e+01,1.763727246008396037e+02,-3.354059763450152332e-01
2.064535989918167758e+01,1.788600778699860427e+02,-2.586109015696479219e+00
2.208531728096239988e+01,1.797778866693976454e+02,-4.226368661049463071e+00
2.263551768209666548e+01,1.808760197696281011e+02,-5.973532868366007165e+00
1.846329678324546819e+01,1.783965878547598152e+02,-9.665348151200987559e-01
2.252422747265850234e+01,1.823490749930074060e+02,-7.625023712264379583e+00
2.095574231184755121e+01,1.871396013197845321e+02,-1.055342757897024342e+01
1.961270293427563516e+01,1.876495489511910080e+02,-1.170669022011272631e+01
1.816967886036935198e+01,1.880409052538532535e+02,-1.274982901438432492e+01
2.197848964147331685e+01,1.861122596532354692e+02,-9.349124970846801830e+00
2.273903504806896692e+01,1.851664837660595708e+02,-7.590484348123538894e+00
1.536385201844313642e+01,1.877038948599189609e+02,-1.432728425143881168e+01
1.678489865276557680e+01,1.885407790894565778e+02,-1.363629440409192739e+01
6.193949714840661258e+00,1.904371969039852388e+02,-1.714545216974651254e+01
3.620526028301798149e+00,1.908062015191749197e+02,-1.748398977194068493e+01
-1.438397026392781441e+00,1.916858981039741252e+02,-1.725697482204719080e+01
8.338404547553679436e-01,1.921128372176021628e+02,-1.756122537619834389e+01
-3.096990631523482307e+00,1.937525340832657434e+02,-1.688923870012953898e+01
-4.981897746474182043e+00,1.935764976986934300e+02,-1.599504339511363327e+01
1.081384727689775183e+01,1.895430167135494628e+02,-1.612646351263813926e+01
8.826929591088099158e+00,1.909497012772513642e+02,-1.669654668453693347e+01
-8.336883308188951958e+00,1.890138842870878193e+02,-1.711995687060316129e+00
-7.475908044373532846e+00,1.892449753231870773e+02,2.229495108974930417e-01
-6.503382348424729287e+00,1.877944737887872293e+02,1.620516458086683542e+00
-8.704799388668249094e+00,1.904643968015485314e+02,-3.274838828749906838e+00
-8.890176168827107261e+00,1.916255718439703912e+02,-5.327925440265218526e+00
-8.791201884476851802e+00,1.921291178522823486e+02,-7.397940643003124706e+00
-8.442072653448835950e+00,1.931289988916277025e+02,-9.491964597022295891e+00
-7.913154803703022822e+00,1.941097292859473953e+02,-1.164032808626649285e+01
-7.110382592721439465e+00,1.953121069291459264e+02,-1.354486681692501548e+01
-1.086305311586542643e+00,1.853567126639228206e+02,5.864821163466196197e+00
1.352572998971155016e+00,1.853871099905819335e+02,6.640745429349159679e+00
3.191683613693955479e+00,1.836787740485365816e+02,6.781598058118767369e+00
4.105571494738461169e+00,1.816263571972692148e+02,6.687305361960142136e+00
-4.848534505742790657e+00,1.875618754986446106e+02,3.296652078175846157e+00
-2.727702719787114205e+00,1.871267979810960469e+02,4.888187588041809306e+00
9.444708935922699666e+00,1.811846267493260711e+02,4.389073016381168202e+00
7.785475026079460292e+00,1.818757240408820053e+02,5.364050023624699293e+00
5.777653072737059858e+00,1.828122280985654982e+02,6.268786002692838366e+00
1.620947349644055890e+01,1.783201335536771239e+02,3.825060636834507477e-01
1.499782756431113739e+01,1.802594934086890817e+02,1.029182662324139130e+00
1.147404182130658157e+01,1.818740897783158346e+02,3.078074591185135489e+00
1.397594519677012492e+01,1.821830419343339713e+02,1.559385578123610117e+00
7.640548183890736311e+00,4.887453520616163871e+01,-1.284172175738802935e+01
9.390278287961516313e+00,4.803697496695492219e+01,-1.220045995254890769e+01
9.694166244820660694e+00,5.958435422088422229e+01,6.719991647684738112e+00
1.066977675944236381e+01,5.775875880412377228e+01,5.807792467324083496e+00
1.336021318359200372e+01,5.557624651540798766e+01,1.374298464707997880e+00
1.254795543663458446e+01,5.653040901369367788e+01,3.208384919158610238e+00
1.133651993321472240e+01,5.592333547850458331e+01,5.155981909872555669e+00
1.396181376789053985e+01,5.447182015193479288e+01,-5.675517482197474095e-01
1.425270321123388584e+01,5.360598896165313221e+01,-2.680050256947218656e+00
1.423331123977698809e+01,5.257067942079168432e+01,-4.679596832110053839e+00
1.400733927495980424e+01,5.088388041970431885e+01,-6.174931873473362032e+00
1.280767276427272172e+01,4.973526635619524683e+01,-9.029655315820715344e+00
1.195316987393620067e+01,4.842792649672358607e+01,-1.022071513817403599e+01
1.369735836019764541e+01,4.908753458688862281e+01,-7.290582420298065358e+00
1.086988224164771388e+01,4.698188408738585053e+01,-1.132613580731335290e+01
-9.626759292286706682e+00,4.835368194002906250e+01,2.147911989152316181e+00
-4.558413631558275725e+00,4.929322663500830970e+01,8.611566945196750922e+00
-3.019730245265535018e+00,5.063311373203124788e+01,9.943721976353700143e+00
-1.446833492652421560e+00,5.186264747676881370e+01,1.106755376425619275e+01
-7.154249412892095705e+00,4.822701065388587693e+01,5.808238726759794801e+00
-5.761125629349665545e+00,4.757411840172375150e+01,7.441118607386099981e+00
6.104456966730234524e-02,5.306855429481404940e+01,1.176743249563442717e+01
-8.575257693612662990e+00,4.702583784155779512e+01,3.947888437535841177e+00
1.506406823801586192e+00,5.440198103788224415e+01,1.184896222525144971e+01
7.771970633187144983e+00,5.911826198345328720e+01,8.460076571567299197e+00
5.882014163543054508e+00,5.881396857329352912e+01,9.811697837618723383e+00
4.348127772109517508e+00,5.739686051755669638e+01,1.076565870838864747e+01
2.901944727050871364e+00,5.583625008421068969e+01,1.146333238489194883e+01
-1.042610032039817725e+01,4.691152346383029936e+01,6.591284369788361630e-01
-1.131346357703988303e+01,4.748508050198007169e+01,-2.396080151858139828e+00
-1.106022291797016521e+01,4.588423115422314424e+01,-9.401279518314211714e-01
-1.138173637059326282e+01,4.857575321312288708e+01,-4.515284111429352265e+00
-1.109437132927150671e+01,4.737125987701065810e+01,-6.485419984837175633e+00
-1.022535058302556266e+01,4.789238075382182558e+01,-8.352268982891848381e+00
-7.608540609316992942e+00,4.720530987713623716e+01,-1.074797133120674708e+01
-9.117882299074256736e+00,4.639657406957469732e+01,-9.685829891528600299e+00
-5.724678475864959815e+00,4.816988355279829648e+01,-1.161171797294380603e+01
-4.077251163814666235e+00,4.645517571002123702e+01,-1.232505177869904855e+01
-2.052486548956194312e+00,4.711714773896411401e+01,-1.286669023817596980e+01
1.999039657559976035e+00,4.750001313897561062e+01,-1.347420048400037729e+01
-5.475528464954670937e-02,4.618606802762991492e+01,-1.333677490656127596e+01
5.907330846961019510e+00,4.747813417817950921e+01,-1.333554808115210832e+01
3.968404615776962796e+00,4.634870533989582952e+01,-1.359211491179385689e+01
-5.906237179431766293e+00,1.954602786419697509e+02,-1.525139337845193666e+01
1.419419298376387495e+01,1.892642074699822388e+02,-1.496257136199896820e+01
1.279461704382107712e+01,1.905532378051479441e+02,-1.558175154593351408e+01
1.929556872302934778e+01,1.804673136026942757e+02,-1.522128035609085828e+00
2.089614029041638688e+01,1.815435931545628989e+02,-2.753498131531159743e+00
2.219277711751745485e+01,1.823399041028639260e+02,-4.278563848734421526e+00
2.278827259015606188e+01,1.836155388199620973e+02,-5.919897941619240100e+00
1.729622183302593896e+01,1.805079161630476676e+02,-2.705810108327710850e-01
2.207289186276203097e+01,1.890056536350903968e+02,-9.544072092093678350e+00
2.071994441382518914e+01,1.893916382978909212e+02,-1.095826543081022209e+01
1.927178967839564194e+01,1.898061968488678701e+02,-1.211965293827998380e+01
1.774953944564293806e+01,1.901832131812507782e+02,-1.317535975460374686e+01
2.271645675803422293e+01,1.875355828321525848e+02,-8.233575454072791899e+00
2.281107908000697293e+01,1.860772648991942617e+02,-5.462735191241364419e+00
2.301120236370000782e+01,1.879065498942800616e+02,-6.437208922118514920e+00
1.586979647885457467e+01,1.901043229663425791e+02,-1.424626872611196404e+01
5.060256197742358353e+00,1.929156688709081209e+02,-1.745465604932468295e+01
7.190717715733949689e+00,1.924975125392762152e+02,-1.711368181194355742e+01
2.834435261773405657e+00,1.931553966156144497e+02,-1.762640179018278275e+01
-9.388644349961552393e-01,1.940477128951099246e+02,-1.743348035894729975e+01
1.258969713543610425e+00,1.947696139133697102e+02,-1.770081049400685202e+01
-4.363433624428466828e+00,1.957122813377161492e+02,-1.640441974299712768e+01
-2.501636646168741152e+00,1.959753018490400791e+02,-1.714027851683058401e+01
1.089092841933719491e+01,1.918403617744659186e+02,-1.624719881372794106e+01
9.027028310926571208e+00,1.934369924370440970e+02,-1.680031882286601075e+01
-8.120457185930632704e+00,1.916306494049227638e+02,-1.146501531968311838e+00
-7.055239711833166893e+00,1.912937479919096120e+02,8.542689873259803335e-01
-5.817028877652049346e+00,1.899608587439862220e+02,2.354701557777318044e+00
-8.683567936074865656e+00,1.928854491610647415e+02,-3.157215126377536762e+00
-8.902841117123948322e+00,1.939053943565526765e+02,-5.352509118522107201e+00
-8.776980873719608667e+00,1.945544642555570078e+02,-7.526678561560629532e+00
-8.410865039075034133e+00,1.955141182368560919e+02,-9.784199875836279148e+00
-7.909334023674400527e+00,1.967272646282854112e+02,-1.167013668855828712e+01
-6.383160268089625333e+00,1.975930031602605368e+02,-1.468650602849413644e+01
-7.284735933363684524e+00,1.981866434967016346e+02,-1.322089840570295394e+01
1.491115296825356040e-01,1.872033894678394006e+02,6.279326880727289506e+00
3.277186607815691488e+00,1.859556190455031697e+02,6.742108980308739064e+00
2.306697032973849204e+00,1.881129084812055794e+02,6.698872749532007731e+00
5.346361592083397341e+00,1.849032757335099291e+02,6.382568766137929117e+00
-3.922533177731210685e+00,1.893968083315557749e+02,3.998822189558751461e+00
-1.680491390794262685e+00,1.886679886623510356e+02,5.456883093264210061e+00
9.989461850718745595e+00,1.836373506132253510e+02,4.017099499138129914e+00
7.796273701783629662e+00,1.841895834818984667e+02,5.352177963113646797e+00
1.654470590599563806e+01,1.826150232264304236e+02,1.200483528936970856e-01
1.265900884388739556e+01,1.840060392158603122e+02,2.309789201735085840e+00
1.549375919276903701e+01,1.844806190874744800e+02,6.765294563690247287e-01
7.835352361685331779e+00,4.657762548975485828e+01,-1.297199011571882821e+01
9.585971216237465953e+00,4.549960234460897368e+01,-1.229949068999812312e+01
8.854445579232354646e+00,5.731722803123613375e+01,7.702702282106467457e+00
9.806398921866064100e+00,5.532652238345645657e+01,6.996458567311487187e+00
1.324631258916816812e+01,5.346334960345515697e+01,1.902384892211658851e+00
1.243523132179956292e+01,5.449592251441288226e+01,3.568529515330868485e+00
1.129916874505484436e+01,5.375917301709952056e+01,5.450158146971300965e+00
1.387012942532240523e+01,5.237093386817790019e+01,6.178719738377402848e-02
1.424753642913269402e+01,5.162642576038743414e+01,-2.005279266724725673e+00
1.433831244796774307e+01,5.060006626483848180e+01,-4.066048519259865657e+00
1.429935499402378696e+01,4.856955438621219656e+01,-5.073690454302862918e+00
1.305896008433318833e+01,4.748505143593961009e+01,-8.740518288546581971e+00
1.220187943463458780e+01,4.597252789108971172e+01,-1.007270266184766427e+01
1.393780953667939748e+01,4.688878617943255023e+01,-6.846266767943046005e+00
1.110675507977706289e+01,4.446342601879298684e+01,-1.130554278648231303e+01
-9.636265127710885281e+00,4.563671047854815299e+01,2.360948196058551218e+00
-4.165722104445199747e+00,4.658381461529282319e+01,9.054636743247103325e+00
-2.771516458225120161e+00,4.813977865811991563e+01,1.022174224278739096e+01
-1.229821427188679150e+00,4.946597098885405330e+01,1.128363802899655965e+01
2.882130996513824206e-01,5.077190029546824235e+01,1.192594261107150189e+01
-7.251338472069221552e+00,4.585600242575690544e+01,5.813626085850042813e+00
-5.725857430812872906e+00,4.500353700148694713e+01,7.579322562870681068e+00
1.685824744050034241e+00,5.218442007506224911e+01,1.195776529232708008e+01
-8.575968425709323384e+00,4.444886590954386918e+01,4.136324512736329950e+00
3.214254489904091017e+00,5.364606659001285038e+01,1.150952914322575360e+01
6.498548207328063597e+00,5.685354692310690439e+01,9.562306816281854083e+00
4.723670828257702681e+00,5.528022148891760423e+01,1.073952863532262825e+01
-1.051937161573111723e+01,4.436086379905361810e+01,7.580351565797478486e-01
-1.145858958729991173e+01,4.493937159616879029e+01,-2.603711682396106397e+00
-1.147444367470072635e+01,4.640602177106521964e+01,-4.295279381078334069e+00
-1.117942332507057301e+01,4.339572814243669541e+01,-9.081701719827677266e-01
-1.123019290091599842e+01,4.539007783556889564e+01,-6.177485875882272381e+00
-1.042489485585970321e+01,4.540831816156838130e+01,-8.150439634379287313e+00
-6.040909346818284398e+00,4.606039216429721250e+01,-1.161085733811932386e+01
-7.656351036766547935e+00,4.466976214594416206e+01,-1.085199628582109632e+01
-9.369539491327214975e+00,4.418471536346848438e+01,-9.540237250862748652e+00
-5.619723513548128047e+00,4.409828066645968647e+01,-1.189132517068600059e+01
-3.769223809307272077e+00,4.427653630019223385e+01,-1.256320042413181781e+01
-1.877291937094692553e+00,4.463490673691614319e+01,-1.307196918332429902e+01
1.947661180059189645e+00,4.520896045223136639e+01,-1.362244894514801352e+01
1.685169625504400193e-01,4.374741868611280182e+01,-1.353742830480613435e+01
5.998890321448229201e+00,4.525160717945955469e+01,-1.349160895459832332e+01
4.054778897367205204e+00,4.403861871374382986e+01,-1.375606848208718525e+01
-5.203353322610858811e+00,1.979242844035844371e+02,-1.589637312936351776e+01
1.475658928665647807e+01,1.917334813499203392e+02,-1.487466178836911723e+01
1.288134020259482426e+01,1.927179302875195788e+02,-1.566966784970246351e+01
1.874566171070985376e+01,1.827147800079632418e+02,-1.140650411752893945e+00
2.040617380790914126e+01,1.839868663430970344e+02,-2.310295173424037785e+00
2.196636671158514176e+01,1.846512632358788437e+02,-3.875191650128272158e+00
2.300136558361015204e+01,1.898247277102777844e+02,-7.644999188673466506e+00
2.165066797438847246e+01,1.912493722727471948e+02,-1.019717695143752678e+01
2.274925815803265294e+01,1.914522372822744103e+02,-8.647782814587216649e+00
2.022540500663078333e+01,1.915363647131743505e+02,-1.152329926283726280e+01
1.870000180566921344e+01,1.918434031407721534e+02,-1.266441456108278629e+01
1.685748097120586309e+01,1.918160174308596879e+02,-1.382209548789491294e+01
2.178902605213918875e+01,1.869962695307686715e+02,-3.635475210051581030e+00
2.244187551581667606e+01,1.887404730198536811e+02,-4.554792475875586888e+00
2.294598996775357591e+01,1.904432986934184271e+02,-5.705084702796398233e+00
6.649039969206353540e+00,1.949083890183847529e+02,-1.733778236631076908e+01
4.122113079172329719e+00,1.953334947375808213e+02,-1.764992033500983837e+01
-3.478757851489575614e-01,1.964449976515330150e+02,-1.760113798322066003e+01
2.235771992077932424e+00,1.969736249544054658e+02,-1.780374384217983419e+01
-3.711679228385442286e+00,1.980321787582701631e+02,-1.676342127992813147e+01
-1.815189477336637935e+00,1.984106360842673098e+02,-1.739657683492033868e+01
1.100509509776618167e+01,1.941445487830343097e+02,-1.634976800574744260e+01
9.186457330292306267e+00,1.956770739447253504e+02,-1.689404816247606789e+01
-8.206434374815884780e+00,1.943799652727228420e+02,-1.392162093577532289e+00
-7.292258702417939276e+00,1.935589980874491118e+02,4.812176021346346033e-01
-5.971466689039139908e+00,1.926045248702023400e+02,2.184075596265834918e+00
-4.413263088919642030e+00,1.916316625500414261e+02,3.605464051618696431e+00
-8.767646810701521076e+00,1.953919288077685508e+02,-3.520245294102430478e+00
-8.925605929052462528e+00,1.963806602972716462e+02,-5.791325544500033118e+00
-8.770719892723207067e+00,1.968481194379877763e+02,-7.985377834429016275e+00
-8.489498857747374672e+00,1.982663269262911854e+02,-9.646029526747788907e+00
-8.025200698331495630e+00,1.996592454446910949e+02,-1.146318273007172195e+01
-6.113733992605133949e+00,2.001471061590042666e+02,-1.507790596263409100e+01
-7.280300495803533778e+00,2.007035123096839868e+02,-1.339540005110255549e+01
2.160641561256753107e-01,1.894991938886233811e+02,6.262077977624400660e+00
4.797497496374630188e+00,1.872818482607871715e+02,6.509543734001159265e+00
2.108858005104529809e+00,1.906643492757008289e+02,6.661129090146985732e+00
4.083439756718609814e+00,1.895464803807304293e+02,6.631343674938541710e+00
7.100286631408332383e+00,1.864553213465481463e+02,5.713426188645673420e+00
-2.245347999491162483e+00,1.907292064549778274e+02,5.096903897320082422e+00
1.142168773686164229e+01,1.857864856019965032e+02,3.075637648875996888e+00
9.331697627843004383e+00,1.860532740259194213e+02,4.419719690351218588e+00
1.816121498019035130e+01,1.850613136498080564e+02,-7.932358830412056250e-01
1.407533918140619278e+01,1.861974073066464541e+02,1.453420041634942095e+00
1.657664091129061035e+01,1.869041487239595654e+02,8.469266947336251405e-02
7.968646058957046918e+00,4.432311657684491735e+01,-1.310037823112039490e+01
9.732414589201157540e+00,4.284929030753313128e+01,-1.240865152234264457e+01
7.768114787073923111e+00,5.548426739967836596e+01,8.772977097552459469e+00
1.001831623439312580e+01,5.309911573371626758e+01,7.022690745164857695e+00
8.299996698540159201e+00,5.356250412604877909e+01,8.547692758676451064e+00
1.329268483383500055e+01,5.135342984703351021e+01,2.101016009873205803e+00
1.227632698116384269e+01,5.236540876702960645e+01,4.070959366110505684e+00
1.104055238674719597e+01,5.126460608432240207e+01,6.010946379041051557e+00
1.402611590685461351e+01,5.022636754646908486e+01,-2.909182580589853018e-02
1.437799800191066169e+01,4.943303876616831616e+01,-2.346271781404093204e+00
1.445836439857871802e+01,4.614982103278006775e+01,-4.856905546137410212e+00
1.451659244030044604e+01,4.746452509296008060e+01,-2.954778027021079723e+00
1.337261217113226408e+01,4.518155140661099978e+01,-8.336500864179217984e+00
1.253837906032728355e+01,4.371654370977662296e+01,-9.816463554152026205e+00
1.419673218237452161e+01,4.450619951281558428e+01,-6.350946470542680800e+00
1.148446977746069919e+01,4.216005826693422165e+01,-1.113401572589032895e+01
-9.684471051532391073e+00,4.303945706375327518e+01,2.508274551721324741e+00
-2.397882054150533904e+00,4.548712435725983028e+01,1.059508233287629508e+01
-3.964123584664568156e+00,4.403554138219006120e+01,9.285183270529316246e+00
-9.514163589144919442e-01,4.697784478397893793e+01,1.153019080695196941e+01
5.192323797715634459e-01,4.836595834868151655e+01,1.212152769542394282e+01
1.925897196175259118e+00,4.981075007735123705e+01,1.210599032997428814e+01
-7.223129407726730733e+00,4.337490565617189020e+01,5.955904101271919160e+00
-5.619658689159276577e+00,4.251320164907755839e+01,7.745786400628629664e+00
3.319406974507577601e+00,5.126665574420653826e+01,1.165651742506857680e+01
-8.565074062208857697e+00,4.192044017349558516e+01,4.299677276031573570e+00
4.922949604974714788e+00,5.256313225178121229e+01,1.085980023999273136e+01
6.208452217620571645e+00,5.410261066371451477e+01,9.997134333404797957e+00
-1.060171828083915813e+01,4.189463871000231876e+01,8.611593027453601223e-01
-1.157795565282726713e+01,4.258449830136464698e+01,-2.753742232768463083e+00
-1.155632940627149807e+01,4.403254124333878394e+01,-4.544686905777588493e+00
-1.129185150191767661e+01,4.106915538807824362e+01,-9.261232141291202424e-01
-1.106898511552702224e+01,4.339749953345861400e+01,-6.910373671927963812e+00
-1.016314340383575399e+01,4.236679839290113847e+01,-8.674970482962846674e+00
-8.447657493650748251e+00,4.237255332697299082e+01,-1.041681372496337232e+01
-6.684172837717830440e+00,4.230355665054328540e+01,-1.151027664132829287e+01
-2.880970208469888938e+00,4.213540050173842388e+01,-1.297922319474361075e+01
-4.774421963834775795e+00,4.192484570102723751e+01,-1.236408894043053586e+01
-1.136982372691630605e+00,4.206481601305311102e+01,-1.342363721076563721e+01
2.177211214979901222e+00,4.292881602047493317e+01,-1.380799144762294617e+01
5.490784870332210410e-01,4.105900797739354857e+01,-1.379547295467138035e+01
6.072647386845090978e+00,4.296366589333486274e+01,-1.366335770172140229e+01
4.387189206746777259e+00,4.170126566387409639e+01,-1.393912994409868134e+01
-4.729612005506876216e+00,2.002899632146225883e+02,-1.629291241082032116e+01
1.440281540583676900e+01,1.940351908356280148e+02,-1.516463462236240645e+01
1.611368082322564277e+01,1.935414397669025561e+02,-1.433566630186413704e+01
1.265708316362996655e+01,1.950678544992175034e+02,-1.587117171606320198e+01
2.030344070133548939e+01,1.863574081039333237e+02,-2.210435148940185002e+00
2.312826727593891718e+01,1.923982985252848721e+02,-6.945456750696820336e+00
2.248483034453231255e+01,1.932937932922601476e+02,-9.308926359251074700e+00
2.120516167906535543e+01,1.933924278605452400e+02,-1.078733854065075093e+01
2.307809448917577200e+01,1.946666732088548315e+02,-7.963459096638402457e+00
1.970421689944647170e+01,1.935664584089283835e+02,-1.204558789453299994e+01
1.793978056967634771e+01,1.935388087275311761e+02,-1.327533693590895325e+01
2.087647315165980189e+01,1.890484969629686418e+02,-2.711201003475032678e+00
2.184200084260582031e+01,1.910309345200048199e+02,-3.722392118223424973e+00
2.265069755624125136e+01,1.925548123343832856e+02,-4.922640510291515170e+00
7.109322718988337897e+00,1.970540520734917322e+02,-1.736821328340555226e+01
4.811376467902734433e+00,1.977571169510765969e+02,-1.769051981966422460e+01
4.043562452940072660e-01,1.987033293109335261e+02,-1.776241301045958920e+01
2.887374075113513072e+00,1.994019819904166582e+02,-1.787495321075671484e+01
-3.056784378232993760e+00,2.003821658811488646e+02,-1.709415112098388079e+01
-1.034236274811636491e+00,2.007683234332053530e+02,-1.765496069535386425e+01
1.123434342434761923e+01,1.966608457055410781e+02,-1.640625440988923600e+01
9.159778885496290712e+00,1.980474313861078031e+02,-1.701043268142448284e+01
-7.427165961033928454e+00,1.959608623027210967e+02,2.456246633531051771e-01
-8.358897169093026491e+00,1.970576099866296147e+02,-1.770182461705445576e+00
-6.159088773819910045e+00,1.950001262817867485e+02,1.982115267284207505e+00
-4.561407286006009087e+00,1.939486364565774181e+02,3.465177705005615394e+00
-2.625789204177213065e+00,1.928641604219507428e+02,4.838175714515521975e+00
-8.888928887841945681e+00,1.977727257502336329e+02,-4.055145004636116823e+00
-8.923802476748569745e+00,1.989274010806794024e+02,-6.939254742870822668e+00
-8.693446961614494484e+00,2.007671939685307336e+02,-8.845085891946929735e+00
-8.237749872045402100e+00,2.021550221418873718e+02,-1.087590790163550025e+01
-6.612333173732642067e+00,2.027756739994723318e+02,-1.464779837016200759e+01
-5.393261775155128390e+00,2.026794425263387325e+02,-1.591912859050451345e+01
-7.612256367116964739e+00,2.030568025775399121e+02,-1.286165192769914256e+01
-2.340249437170385249e-01,1.917715291962915671e+02,6.082803662749050488e+00
6.446764902568583366e+00,1.887519456070970136e+02,5.991891727373907628e+00
4.033827128590878885e+00,1.921049929520781347e+02,6.657321796651459067e+00
1.902818159692305500e+00,1.930561182108514515e+02,6.628420339187563570e+00
5.899057036786135910e+00,1.910032719220317574e+02,6.193446914663439884e+00
8.635094841030726442e+00,1.884239767222227044e+02,4.851707193328564927e+00
1.277583986822962814e+01,1.879963385395877253e+02,2.230499267834659349e+00
1.071567933667627948e+01,1.882161353995030026e+02,3.529896111590378638e+00
1.883473093755281624e+01,1.876861548941026854e+02,-1.190090962339809266e+00
1.495841297676949466e+01,1.887615077836285593e+02,9.734861890226511605e-01
1.721910025446611670e+01,1.894155069607837447e+02,-2.458542229655193978e-01
7.786116549298403910e+00,4.208391917496861367e+01,-1.333024225886811820e+01
8.638285405608577605e+00,4.033644619232153872e+01,-1.315746219138270234e+01
1.044773859678034533e+01,4.043416904537877343e+01,-1.213998647499470707e+01
9.133127215776042362e+00,5.140575791530957872e+01,8.039644412050453326e+00
7.031049569558446066e+00,5.187406988851824963e+01,9.652144351722400373e+00
1.350799607694869486e+01,4.920990832293040285e+01,1.891651749511025216e+00
1.242923989424730813e+01,5.027464461432921183e+01,4.038889339915148646e+00
9.814517981937404656e+00,4.946863792203242127e+01,7.575092598524141074e+00
1.145719485010809890e+01,4.905597774885062279e+01,5.689631218749611641e+00
1.425478487548508788e+01,4.800395050730776347e+01,-5.320379928344269871e-01
1.464200350975159282e+01,4.547292632110535493e+01,-2.705012320264311043e+00
1.467224509386447906e+01,4.382552207227744390e+01,-4.132155858742732946e+00
1.441154960872394852e+01,4.586818634670758854e+01,-5.721075295214790302e-01
1.366226364714575325e+01,4.295760130445173530e+01,-7.961271862383910047e+00
1.289949609648691364e+01,4.148454900505583254e+01,-9.467477549903115630e+00
1.446016687534648959e+01,4.232851880719218940e+01,-5.796656379569480322e+00
1.203729739107000007e+01,3.984742850906116729e+01,-1.073543160458518742e+01
-9.715931600335707685e+00,4.053726016227128071e+01,2.677799814679737267e+00
-2.014955152884040590e+00,4.293609011114936180e+01,1.089918056011635450e+01
-5.266930965802871789e-01,4.441130913717496753e+01,1.184652416598225599e+01
-3.726014562113784123e+00,4.157458390338712206e+01,9.518604819167602926e+00
9.097967156018048618e-01,4.593096422822276281e+01,1.236156734186846329e+01
2.307064725942632677e+00,4.747929846680515453e+01,1.224164872689049055e+01
3.777195913947952732e+00,4.890867449896584418e+01,1.169771650554466369e+01
-7.155075123230322021e+00,4.093519974125938887e+01,6.126837652647108001e+00
-5.451460367102267668e+00,4.009839771486909399e+01,7.954508316637987519e+00
5.368767181756922469e+00,5.029918776265582636e+01,1.083018373952135249e+01
-8.531074846399253175e+00,3.948501914503414412e+01,4.481651073368084326e+00
-1.067405336027384521e+01,3.952232530654934095e+01,9.639887917697365083e-01
-1.166475196581977158e+01,4.044264925412482370e+01,-2.998357661189960055e+00
-1.157378050081151244e+01,4.194465093196479444e+01,-4.947718143684078029e+00
-1.144351874410443060e+01,3.896371146861800128e+01,-1.172275898574437036e+00
-1.112116614181163676e+01,4.103471975553880213e+01,-6.867481530555984648e+00
-1.036087831915297564e+01,3.966695936820197232e+01,-8.446004318776632047e+00
-9.173315106206327840e+00,4.040188802409639379e+01,-9.848674552494374623e+00
-7.371155623375562627e+00,4.023710034402040492e+01,-1.123001327430123020e+01
-5.616871906962941807e+00,3.981566812795227150e+01,-1.216669903194888569e+01
-3.572909663920583512e+00,3.984050423613587810e+01,-1.293441628462811543e+01
-1.655915588497719693e+00,3.961339628195509022e+01,-1.350158974234405029e+01
2.556223279997856146e+00,4.080972031796934374e+01,-1.400937001886376976e+01
2.097877123045504000e+00,3.865806801885778299e+01,-1.417724007624955718e+01
1.150012918563598774e-01,3.874711730395020481e+01,-1.392922596117026579e+01
6.255884406658923425e+00,4.029318941948024246e+01,-1.386311023235583662e+01
4.158934820320892456e+00,3.933627570412291163e+01,-1.416322366350878070e+01
-3.805730761721452637e+00,2.027416921854448901e+02,-1.687122445857401942e+01
1.564372999023169264e+01,1.957853825747870360e+02,-1.468607437589726317e+01
1.391003301495292277e+01,1.963959452417756779e+02,-1.547967422759520417e+01
1.731688307405343252e+01,1.954167042829175784e+02,-1.375790136934657681e+01
2.304925080750906119e+01,1.945559214662047509e+02,-6.084119622274400285e+00
2.221797127513310244e+01,1.953297976768277806e+02,-9.814663400771316049e+00
2.076803666915365199e+01,1.953734550713375029e+02,-1.130319957321917457e+01
2.316093915211899912e+01,1.968075190063515549e+02,-6.851785424662836022e+00
2.293464424021870940e+01,1.970932902517293428e+02,-8.666220315605862368e+00
1.905472531024034311e+01,1.953309049644694824e+02,-1.263064863584048680e+01
1.925221936915396626e+01,1.899577986428195402e+02,-1.475625347024042355e+00
2.027392279573074063e+01,1.917346357914017290e+02,-2.209590874697902052e+00
2.110612883549292818e+01,1.936489280056300970e+02,-2.931612889477463568e+00
2.232091021850425960e+01,1.945935520796011531e+02,-4.353357539080242589e+00
6.922645959033086882e+00,1.994274390184838239e+02,-1.748922669570986699e+01
4.965764697571804831e+00,2.006636056765598255e+02,-1.777065322420083504e+01
1.110810402704323963e+00,2.009293732455322470e+02,-1.790413451044491921e+01
3.043222210402886319e+00,2.021877340845577464e+02,-1.794755196471617609e+01
-2.045602961679866993e+00,2.028126752728104236e+02,-1.748426800041914930e+01
4.679533167220064627e-01,2.031515495888607177e+02,-1.790422037963941904e+01
1.102084729620042935e+01,1.990885235882440725e+02,-1.658959783438817936e+01
1.286094030592979465e+01,1.982262113095054303e+02,-1.595644800085415227e+01
8.879887292469248905e+00,2.004741654488505844e+02,-1.717361827853392242e+01
-7.624322126205342443e+00,1.983820112330146799e+02,-5.753901186681531499e-02
-6.424613887958919634e+00,1.974208009747664505e+02,1.694886756255932880e+00
-8.616693986581360321e+00,1.996356941081929506e+02,-2.467225938172987298e+00
-4.770636780926047038e+00,1.962642204343644323e+02,3.288018742915021164e+00
-2.870835299395960050e+00,1.951397145794383903e+02,4.643904311600579149e+00
-6.280208942008762563e-01,1.940245447245961543e+02,5.855834327210217793e+00
-8.993847014402827966e+00,1.999055082607780207e+02,-4.910323351956392912e+00
-9.016210231621968774e+00,2.017879554535737157e+02,-6.693647161452219052e+00
-8.781723173432016694e+00,2.038101257650761795e+02,-8.672468068609795466e+00
-8.191777322233189551e+00,2.048174328235875237e+02,-1.129777688409167524e+01
-6.038281633694822403e+00,2.052226779912901975e+02,-1.543253824418883369e+01
-7.215946692659017003e+00,2.052557426704082957e+02,-1.378441951609049454e+01
-4.597593550171328758e+00,2.050051859622613790e+02,-1.654111061387926895e+01
7.977273104318271635e+00,1.906961228498005312e+02,5.281773711148218808e+00
6.445846222388542657e+00,1.932224745882928403e+02,5.994662261082128296e+00
4.196141178383815173e+00,1.944808744894579036e+02,6.642851858331962234e+00
1.320379668940883988e+00,1.952172243699095588e+02,6.486449234715372825e+00
1.028695298470547748e+01,1.904593366204270524e+02,3.831220703147348416e+00
1.285620243404455465e+01,1.904130404020078515e+02,2.204064459941072585e+00
1.548919981218575970e+01,1.911190850113372051e+02,6.838913288404313562e-01
1.797069057373949974e+01,1.917276006421506338e+02,-6.851713113191593152e-01
7.469477558083974955e+00,3.836824581829480962e+01,-1.376324743647084503e+01
9.526914734860408629e+00,3.826131094342822792e+01,-1.292890965955275817e+01
1.119368754869964100e+01,3.806808806728766825e+01,-1.176923226686755086e+01
7.672174175161707410e+00,4.976364164401617529e+01,9.393102833812413621e+00
1.377965053017745589e+01,4.710563942734096088e+01,1.559185708795965297e+00
1.277283543482710826e+01,4.811064196756475297e+01,3.714865761432066371e+00
1.042588410374786356e+01,4.739511376655735120e+01,7.158355446737496131e+00
