1.369261276323770815e+01,3.541452075473624745e+02,-2.666060609996096176e+01
1.246061328416694280e+01,3.521825938961907241e+02,-2.751696076893537324e+01
1.021499447584137776e+01,3.522813262479241985e+02,-2.913539904604893849e+01
7.876759159590807968e+00,3.521644935496294124e+02,-3.059778009353168216e+01
1.914551989740815685e+01,3.559953545564222281e+02,-2.007864294519790604e+01
1.782359413366210532e+01,3.559849532658450926e+02,-2.198578550462705294e+01
-1.777611916835098782e+00,3.509894915046502888e+02,-3.489833986310121361e+01
-3.965726043729127070e+00,3.504163066456281967e+02,-3.549002770555362218e+01
-5.379118930812055055e+00,3.520747545283172713e+02,-3.620166016381885044e+01
-7.429881604831997777e+00,3.519922995573397202e+02,-3.651930301190089523e+01
5.510248797829214951e+00,3.524568460863094401e+02,-3.191935058918408075e+01
2.554738786291927966e+00,3.524898219347829809e+02,-3.335177193777360571e+01
1.484350710344379820e-01,3.519319764688548275e+02,-3.433225369205874244e+01
-9.604422060248765547e+00,3.521527015819254984e+02,-3.667267614832324085e+01
2.991281617424518657e+01,3.420987611337274075e+02,2.057124008232335655e+01
2.923340180428447255e+01,3.428254764889179000e+02,2.253149211368833349e+01
3.053265459995111542e+01,3.432533002430337774e+02,1.915406210999567449e+01
3.096007268963360559e+01,3.454433449476169926e+02,1.661212010005459305e+01
3.077873524342078682e+01,3.449513470770120307e+02,1.864480547684286549e+01
3.081758704067464549e+01,3.476271433205109247e+02,1.574130425216543294e+01
3.041485889098964535e+01,3.482850133931848404e+02,1.363574648716387472e+01
2.953685507658816078e+01,3.483827789711129412e+02,9.704048557045885204e+00
2.976539798446976803e+01,3.495865027957842130e+02,1.155997296211958769e+01
2.919522780448821919e+01,3.491800381152937689e+02,7.644040145075299719e+00
2.915066974496642160e+01,3.483283157535129817e+02,3.944604327983440406e+00
2.893781418407244388e+01,3.499274725979011009e+02,5.600977678104469781e+00
-2.298327772602538133e+01,3.520416587205754126e+02,1.127382504282131670e+01
-2.179994615525759372e+01,3.524971749429114993e+02,1.310780659838448159e+01
-2.075008924622058970e+01,3.526442666503807573e+02,1.496933855946532965e+01
-1.973256644268816373e+01,3.523710195263393530e+02,1.692366943059809969e+01
-1.151171355673962360e+01,3.450386633328186576e+02,3.023753305545162107e+01
-1.033094703423259908e+01,3.444054463766393042e+02,3.148807319889119682e+01
-8.872511604981546895e+00,3.440697719139042761e+02,3.268834343798022246e+01
-7.154236670572300838e+00,3.439733419581484100e+02,3.387327132081722425e+01
-1.275582570731354792e+01,3.464519696191541698e+02,3.021820639649748230e+01
-1.333826253653504068e+01,3.468292402974563515e+02,2.850068816942220451e+01
-3.328145891796260969e+00,3.427870560731130922e+02,3.427851240665580690e+01
-5.190897009446329591e+00,3.438497276332760748e+02,3.511761609119208316e+01
-1.118056736729775125e+00,3.425478460381281707e+02,3.495352703246687298e+01
1.309529063452397502e+00,3.423346195115917112e+02,3.532383264850829363e+01
3.637767356962179566e+00,3.425485959749037761e+02,3.572823999009131057e+01
5.849491406824395057e+00,3.432873528059243995e+02,3.565213581505925333e+01
9.870885081904463121e+00,3.430519502517913679e+02,3.436015525358471479e+01
1.216838824739499181e+01,3.434458502350171898e+02,3.425342034231537980e+01
8.188008392400936586e+00,3.443286887436859729e+02,3.542658033623112601e+01
1.441191238627271431e+01,3.441035751436945134e+02,3.391138652494728944e+01
1.670658530900261951e+01,3.447868848484396267e+02,3.329750749212957572e+01
-1.426653755203804330e+01,3.477683552227339305e+02,2.694260270690404724e+01
-1.564359155746222818e+01,3.486832378967112618e+02,2.283529582994417240e+01
-1.538344408084774528e+01,3.492481610087953641e+02,2.691250965253996696e+01
-1.595705899543816564e+01,3.495826862035013392e+02,2.517299399732625176e+01
-1.701788750706641196e+01,3.501289276201543998e+02,2.166839325812536998e+01
-1.816621764863189981e+01,3.517496675182142667e+02,2.101050568422615328e+01
-1.882104261208414897e+01,3.520291985536249513e+02,1.901674869227609577e+01
2.043909744274677820e+01,3.443243513516374037e+02,3.111057657840724033e+01
1.863788835517419784e+01,3.442117600924580074e+02,3.200681824079958204e+01
2.235879117809625072e+01,3.449504256842175209e+02,3.046403300193574637e+01
2.411629952304292956e+01,3.457393871703743002e+02,2.984879757515169985e+01
2.561229627372012985e+01,3.447510114158241663e+02,2.814187021350916496e+01
2.732061422715012711e+01,3.453390184546411774e+02,2.680150659339214059e+01
2.804901862679687952e+01,3.440255985651648416e+02,2.513152506070466075e+01
-2.588556076721329191e+01,3.499744650329042202e+02,-2.961811438436594912e+01
-2.768698914989971271e+01,3.505588224080586315e+02,-2.840482929836559833e+01
-2.979038743863997141e+01,3.491946999762852215e+02,-2.482649447216820704e+01
-2.916297787245078155e+01,3.516427286232989218e+02,-2.754226055850483235e+01
-3.007182919926320253e+01,3.509683557798971378e+02,-2.600475716620236355e+01
-3.095328145750591986e+01,3.490108562592013755e+02,-2.299629275705285636e+01
-3.089139290399259252e+01,3.477590444445525577e+02,-2.133241460402008727e+01
-3.206029899770953051e+01,3.485114560721476096e+02,-1.935624420381892818e+01
-3.307602215589750472e+01,3.493679652836212881e+02,-1.742061833645271207e+01
-3.323092904438217943e+01,3.490074334768840458e+02,-1.379761566837156472e+01
-3.390617547627306294e+01,3.502232903571309635e+02,-1.549135435218945744e+01
-3.372213721677758258e+01,3.496073359444321795e+02,-1.176516862079851222e+01
-3.447489398475215694e+01,3.520478084767922837e+02,-9.359922706463297715e+00
-3.451925220857069831e+01,3.514287394690709334e+02,-1.138699344609157649e+01
-3.292351500993076030e+01,3.509249299440837149e+02,-3.204781357224540272e+00
-3.357841967334006483e+01,3.520695662239012904e+02,-5.345962956714707559e+00
-3.418959673776866737e+01,3.532267971169443967e+02,-7.412112953157279804e+00
-3.250824438037813024e+01,3.518590532901428674e+02,-1.427477799958726479e+00
-3.181872123608138025e+01,3.527469386565256855e+02,2.070346406519547600e-01
-2.930344306023949841e+01,3.537157395500299799e+02,2.532521903042525224e+00
-2.818228244514114778e+01,3.531712006387267593e+02,3.554674493332687035e+00
-2.693334258282573757e+01,3.529476283027914860e+02,4.633452273414974343e+00
-3.065255834426691095e+01,3.537753859397979568e+02,1.456308556553189248e+00
-2.548192845123330130e+01,3.517046061442345604e+02,7.527825621668539746e+00
-2.423319548937382706e+01,3.519370619966331333e+02,9.313313502442255754e+00
-2.542618869806672066e+01,3.531589365628469750e+02,5.897492695646304739e+00
2.868826324450459708e+01,3.502646645377676577e+02,3.370392764464705149e+00
2.779978992442429231e+01,3.524847276174116359e+02,5.003057717009971039e-01
2.729531527698837934e+01,3.533187533847278132e+02,-1.465786242619477209e+00
2.812464819725282084e+01,3.521695153688204982e+02,2.759284465757823490e+00
-1.175453632894490852e+01,3.523682761517900985e+02,-3.664336234374355428e+01
-1.381672629387256634e+01,3.526746333990843709e+02,-3.645172002097491770e+01
-1.495397375490836467e+01,3.517915015808385988e+02,-3.597076763337510386e+01
-1.606456442687685993e+01,3.509100171024750807e+02,-3.530708393377205567e+01
-1.741744139588012885e+01,3.503774343006480194e+02,-3.456766887706150015e+01
-1.943753679141886082e+01,3.512474020038982303e+02,-3.402833213552225544e+01
-2.114737515121342071e+01,3.510869594907479154e+02,-3.303467752172099381e+01
-2.279547287783389820e+01,3.508143081001801988e+02,-3.191991795487514239e+01
-2.435149453860322666e+01,3.506207007569006464e+02,-3.088269749060475533e+01
2.323666927863476417e+01,3.582339429237903232e+02,-1.067363934041612872e+01
2.415789437446530741e+01,3.574927629610785971e+02,-8.753307231707500691e+00
2.491360039705408269e+01,3.572271536888111996e+02,-6.559849576749698485e+00
2.214249506821762736e+01,3.590514064479093577e+02,-1.260531550016443703e+01
2.130771000022232187e+01,3.587435114551040556e+02,-1.443836726833531081e+01
2.040164588728933381e+01,3.583049555388701606e+02,-1.647132977527214592e+01
1.940687061055896478e+01,3.581059285624150448e+02,-1.874100156270174722e+01
2.655556305279518980e+01,3.555662781542161497e+02,-1.597839818973376014e+00
2.579810848767428055e+01,3.567999380974372343e+02,-3.232351652228456551e+00
2.494561184803928455e+01,3.581135437854262022e+02,-4.730853996880071577e+00
1.627252915249722420e+01,3.560807299454816075e+02,-2.387026827981057409e+01
1.470468790879549381e+01,3.562473698729538683e+02,-2.567348118970656756e+01
1.300764344188723598e+01,3.561885572871053114e+02,-2.739189538384141542e+01
1.132449131433346778e+01,3.547659053251958312e+02,-2.866505944572253384e+01
8.932317358989214640e+00,3.545544050473519064e+02,-3.029893377740902238e+01
6.564355170309637444e+00,3.545210981870916953e+02,-3.170929020606995152e+01
1.836188885296924411e+01,3.580185930802486496e+02,-2.067657625781203734e+01
1.691981639316571773e+01,3.579393378917693553e+02,-2.277144717987669154e+01
-1.502816858195135552e+00,3.538794397237390399e+02,-3.536451030875537072e+01
-3.255632477832921978e+00,3.524781300360382374e+02,-3.572546040512751375e+01
-4.177655062677185782e+00,3.542718530363480340e+02,-3.626815236791028241e+01
-6.398958136357009607e+00,3.540507805551296769e+02,-3.672153458988034913e+01
-8.669765548707253799e+00,3.540399852870814357e+02,-3.696893490272878324e+01
3.841687926074692783e+00,3.544030745240198144e+02,-3.307751582124618039e+01
9.107845370944787078e-01,3.543411575712491413e+02,-3.444541232794747287e+01
-1.107440874288946020e+01,3.541213273094285796e+02,-3.701575415083341625e+01
3.018304452912569147e+01,3.442891957567240411e+02,2.103502223583512887e+01
2.930691085626556713e+01,3.444401499853339033e+02,2.336986619811999333e+01
3.083795032915140766e+01,3.469411167188430909e+02,1.806765520902338551e+01
3.049253983058250483e+01,3.463071913256587777e+02,2.032647749425078842e+01
3.050826764284794024e+01,3.498600776316809515e+02,1.520563730838891026e+01
3.075885567157436640e+01,3.488906917970426207e+02,1.744339505420227709e+01
3.002646851515188331e+01,3.505952561346111338e+02,1.340107609266476985e+01
2.915240583008337438e+01,3.506110468528442539e+02,9.365421030712793637e+00
2.931731548783049490e+01,3.517699950428871034e+02,1.117772681101180332e+01
2.873398024720991373e+01,3.514298507196301671e+02,7.344662710763492086e+00
2.838703056426657767e+01,3.519983796878975113e+02,5.018795097071794942e+00
-2.171358333072847557e+01,3.543328563518526266e+02,1.181477279874158626e+01
-2.283184516158996402e+01,3.538493707254206697e+02,9.848511058515217798e+00
-2.066130953494477041e+01,3.549732492139193027e+02,1.372434570522955433e+01
-2.003014709913454539e+01,3.545350665490564666e+02,1.593085568422043963e+01
-1.944753358812321409e+01,3.541045799436640777e+02,1.811745777885376540e+01
-1.191068000123587822e+01,3.460866540718894271e+02,3.200085719778365956e+01
-1.056059195065298972e+01,3.453609932593586223e+02,3.334899461956790390e+01
-8.940526463383770661e+00,3.451748985372446441e+02,3.454081670007818161e+01
-7.081367929767871772e+00,3.450398272371272697e+02,3.570524879450021416e+01
-1.378088460001617044e+01,3.482030523652587135e+02,3.030921630304783321e+01
-1.295239335649103651e+01,3.478718014232433688e+02,3.207807991484326493e+01
-1.455454739042566459e+01,3.487106355825233095e+02,2.868452782919482402e+01
-2.988761277379925474e+00,3.436666735511704474e+02,3.627447626637913203e+01
-5.167658292545640464e+00,3.449209142523671972e+02,3.688969776381187415e+01
-3.482091758156249384e-01,3.432177165072016578e+02,3.661400137974762004e+01
1.997707473028377478e+00,3.433058899482218180e+02,3.700316522129536878e+01
4.282988817326324416e+00,3.440124119549477655e+02,3.698292238117530673e+01
6.466448939914226202e+00,3.452693360887479344e+02,3.658817887424395821e+01
1.062281359883960796e+01,3.450440952827015053e+02,3.527570825421776846e+01
1.300342686137989823e+01,3.456247007089535828e+02,3.502899682930647174e+01
8.878615270707008733e+00,3.463652148197297151e+02,3.626450431095167914e+01
1.528749107496939530e+01,3.462695756056870664e+02,3.456993603226446510e+01
1.742608230263368441e+01,3.470694389671980957e+02,3.401957568630913187e+01
1.893240201363956743e+01,3.459396904805550435e+02,3.279275115224723436e+01
-1.669261976269527281e+01,3.501970918550290435e+02,2.360038360938015245e+01
-1.639945549156444216e+01,3.509819507516601220e+02,2.679466564837064269e+01
-1.557149571203773775e+01,3.506288869915223927e+02,2.851144608314632833e+01
-1.707595055439092491e+01,3.514686127714120403e+02,2.513291426600926570e+01
-1.767704393098023630e+01,3.517605663632684241e+02,2.309741753930353525e+01
-1.896402292507201182e+01,3.537140863486578155e+02,2.034047583168365847e+01
-1.848022562206239527e+01,3.534741071955269263e+02,2.242973011360059843e+01
2.096202665420182853e+01,3.463360943623358708e+02,3.198130571882626683e+01
2.284049927114329392e+01,3.470555980772317071e+02,3.129237622660323126e+01
2.561550458044770551e+01,3.466586291680433192e+02,2.913785593985443256e+01
2.451696097101308069e+01,3.479193351997187165e+02,3.052004257955287514e+01
2.695269209914928155e+01,3.469969130114703262e+02,2.796839640469242383e+01
2.884787624916373261e+01,3.458466297648085401e+02,2.491870409452041457e+01
2.830303260701199619e+01,3.473080401779471345e+02,2.631962617672395410e+01
-2.573264978296655414e+01,3.519046465768552707e+02,-3.060529152321822366e+01
-2.695969087480771975e+01,3.515942017507693436e+02,-2.963652847297257154e+01
-2.833079472677814437e+01,3.525431574950570734e+02,-2.889101182095553710e+01
-3.117295055303723217e+01,3.505519227818099353e+02,-2.442870040883703453e+01
-2.966150346354771017e+01,3.535314408703761160e+02,-2.795594554363298911e+01
-3.058443936640607319e+01,3.527856644224736442e+02,-2.655523307466299343e+01
-3.166277865571524686e+01,3.522141357665821602e+02,-2.486775162438959086e+01
-3.232861468824715701e+01,3.508291018077182457e+02,-2.289601299045915539e+01
-3.231744795739038523e+01,3.496226649668431037e+02,-2.113128407768003569e+01
-3.344979949181709600e+01,3.503826591200229359e+02,-1.924951638450275482e+01
-3.433748815050928727e+01,3.512144088273768716e+02,-1.737131102455100162e+01
-3.443141086564764919e+01,3.510399281014458097e+02,-1.356456220545073599e+01
-3.490217975783613724e+01,3.521489380487776657e+02,-1.554405502259854899e+01
-3.497989335314510839e+01,3.534867635219616204e+02,-1.157380936532976179e+01
-3.472414022830733416e+01,3.543370378386220523e+02,-9.480016971449835239e+00
-3.511731714459853748e+01,3.530811133131572888e+02,-1.360106231812703292e+01
-3.311052865410631796e+01,3.532477062772799172e+02,-3.442968101865005792e+00
-3.370708249744690477e+01,3.544299767440193136e+02,-5.509729670296596993e+00
-3.417861904167766340e+01,3.555332727817895488e+02,-7.572452173082428573e+00
-3.234966793797963192e+01,3.542252428466425727e+02,-1.622052721402447162e+00
-3.116689265983004020e+01,3.550967995779967055e+02,-1.186174627840230755e-01
-2.774722596333855407e+01,3.554800254283973118e+02,1.808974573792899498e+00
-2.942127784664998558e+01,3.555788342737826042e+02,1.031249791919213621e+00
-2.672985874173354048e+01,3.546787513227003501e+02,2.947343011908544419e+00
-2.515573523011820001e+01,3.544587631039564712e+02,3.960295876323704611e+00
-2.401270345224342151e+01,3.534854477049775596e+02,7.829404615405327839e+00
-2.368769158520100859e+01,3.545559057543031827e+02,5.961195540533733350e+00
2.752572419422055461e+01,3.539074969063736376e+02,2.020539247153431361e+00
2.712039845436670049e+01,3.546416119472785908e+02,2.720411400607829489e-01
2.766260681966275570e+01,3.540993382695722289e+02,4.217587597943993849e+00
-1.345576938743332818e+01,3.542601099598498422e+02,-3.681175898347578368e+01
-1.570140504464053777e+01,3.540293942283201432e+02,-3.636424564738705101e+01
-1.686402456803834582e+01,3.528413490810410735e+02,-3.575927862209992725e+01
-1.818593083166458868e+01,3.520625344146856150e+02,-3.501559958993519928e+01
-2.011452671661519176e+01,3.530827416784373440e+02,-3.460998554431783703e+01
-2.136207153568462758e+01,3.526412518035457992e+02,-3.371500523488352741e+01
-2.289338919966706243e+01,3.524001126317983790e+02,-3.268219707691100240e+01
-2.437908368365384604e+01,3.522696045843123329e+02,-3.167865532305510357e+01
2.323491764364104384e+01,3.595493866460303138e+02,-9.134188362772619030e+00
2.224448972524232815e+01,3.602793541473056393e+02,-1.111184581194135212e+01
2.405803086496084831e+01,3.589686605074250565e+02,-6.970839106684961095e+00
2.106265488114324214e+01,3.609601890486541151e+02,-1.315783448126146737e+01
2.042206566301135950e+01,3.604164041071570068e+02,-1.522030673696828096e+01
1.945193763982029012e+01,3.600843920779244058e+02,-1.749459687328256763e+01
1.836380355052680002e+01,3.604853186088021175e+02,-1.950578269712838164e+01
2.641515139657112599e+01,3.565171456971114026e+02,4.207809345441753113e-01
2.569385751727550726e+01,3.576631919479786461e+02,-1.394912732106641240e+00
2.474345603630137802e+01,3.589510470383461893e+02,-2.877947919850784686e+00
2.385856912679093966e+01,3.598509315949686425e+02,-4.946131597231901544e+00
1.542209662889173494e+01,3.582422769357604011e+02,-2.473968592529667276e+01
1.390601373892537396e+01,3.582595616404530006e+02,-2.656375176350265122e+01
1.185391957034313393e+01,3.575734379257199294e+02,-2.848738509556408616e+01
9.813471236003554310e+00,3.568338722200251141e+02,-2.998322494687721473e+01
7.482646864745709614e+00,3.567777165526584326e+02,-3.150055524406778318e+01
4.984120958707114468e+00,3.565671532271103956e+02,-3.284021929411684937e+01
1.747520489080345385e+01,3.597600256006409154e+02,-2.148334955577599814e+01
1.612758157928098512e+01,3.601619627536368853e+02,-2.348517768582573240e+01
-2.686337944618152562e+00,3.559888281613258982e+02,-3.597984970034965357e+01
-4.431792826721299150e-01,3.563830197478818604e+02,-3.522823162439155453e+01
-5.379857167062187528e+00,3.560416475783124497e+02,-3.668607097664921213e+01
-7.742409748141501069e+00,3.559843168649755398e+02,-3.708786642924860644e+01
-1.020663708548383042e+01,3.559522893953265452e+02,-3.718392984939129065e+01
2.269870527520062353e+00,3.563151330764291629e+02,-3.410283816893397812e+01
-1.280084093499100817e+01,3.559651757342381870e+02,-3.698117454437469576e+01
2.989882960519776489e+01,3.460857411571269608e+02,2.253492564836660250e+01
3.057472282004773945e+01,3.484805295724722214e+02,1.973817089562797022e+01
3.013775341574524802e+01,3.481257896636965370e+02,2.189516158740946139e+01
3.048222191023855743e+01,3.509997404554459877e+02,1.677357288341680075e+01
3.005156648781814255e+01,3.524727407267824333e+02,1.520276704361645415e+01
3.044184472106252670e+01,3.507233783496092201e+02,1.897239405978858784e+01
2.961943230080202483e+01,3.526084244678519326e+02,1.315422647833089442e+01
2.862225546453172242e+01,3.530968412966517462e+02,9.275474758880456250e+00
2.897284173711909361e+01,3.540295478568013436e+02,1.165496834240876467e+01
2.818571801982115943e+01,3.533810511351699120e+02,6.793089593032158646e+00
-2.041113719491380962e+01,3.565884199046094523e+02,1.156575860269354372e+01
-2.129950926853768323e+01,3.559320684050605337e+02,9.754534358254639770e+00
-2.235225684426850634e+01,3.552533836259472650e+02,7.844736361620552323e+00
-1.955982766067030454e+01,3.568020660017853629e+02,1.497310196733045906e+01
-1.947108964240178608e+01,3.576551353144898826e+02,1.297204078355769497e+01
-1.936118706409440193e+01,3.563304824628269785e+02,1.715922668684727626e+01
-1.921420361687369294e+01,3.558087425328074573e+02,1.929402589606426233e+01
-1.177260823890976482e+01,3.469725271333618934e+02,3.373681693704386930e+01
-1.046984388514671593e+01,3.465721418491452255e+02,3.494045144056200769e+01
-8.773016845846509426e+00,3.463573267844071779e+02,3.611386586062585025e+01
-7.049412328532481453e+00,3.463495124015514648e+02,3.725568097642671006e+01
-1.469483559242247495e+01,3.501455304606525942e+02,3.003467583165569366e+01
-1.380348215830092151e+01,3.497747212500352703e+02,3.167172761931987068e+01
-1.243929375512390934e+01,3.485569151685808151e+02,3.380609774516135957e+01
-1.306925769919228131e+01,3.500439796254750036e+02,3.332033794482146760e+01
-1.733931213756196854e+00,3.442202079365348482e+02,3.777300566064717913e+01
-3.648052301461206071e+00,3.451699529081196260e+02,3.818935832594765145e+01
-5.488750613862510619e+00,3.465455723332800062e+02,3.845856466764720949e+01
4.770855019964779231e-01,3.443338279293208188e+02,3.826194984054841797e+01
2.724847170755332559e+00,3.448940772529620631e+02,3.820713508114703671e+01
4.839008161766923166e+00,3.460632012370300572e+02,3.777008474790148540e+01
7.044730669720979499e+00,3.473557061162926516e+02,3.730261876349188555e+01
1.135090537098919761e+01,3.471275596918281394e+02,3.604039071685236451e+01
1.366904240055696462e+01,3.478416776689883250e+02,3.567858009308220346e+01
9.488944990969761406e+00,3.483906901228440347e+02,3.700315547236173330e+01
1.586690246122015679e+01,3.485866029646643369e+02,3.519110148335587240e+01
1.800483677687299178e+01,3.493309492386052852e+02,3.455014512678967975e+01
1.958364565673536362e+01,3.478986376735019803e+02,3.337018865422085412e+01
-1.721790175928575906e+01,3.529885690419591242e+02,2.648958998299036693e+01
-1.639330325545812173e+01,3.524729088103113668e+02,2.808062757571064338e+01
-1.541291946730901508e+01,3.522926145410730783e+02,2.980348605178579646e+01
-1.789565318574263841e+01,3.532366053051619588e+02,2.451766714529213687e+01
-1.889419239202839407e+01,3.554401015930293397e+02,2.153034257717627753e+01
-1.836492510842859360e+01,3.552182875701246871e+02,2.358369195994571754e+01
2.155902513948101173e+01,3.485495380609769427e+02,3.261062139129185056e+01
2.329310705017780592e+01,3.493190640321415685e+02,3.180547487766735770e+01
2.610049862585485059e+01,3.486932119877970990e+02,2.936256456370215773e+01
2.494923750450699629e+01,3.501024918928587226e+02,3.068147292197742004e+01
2.755647308273963603e+01,3.490174426373532697e+02,2.773504485116925622e+01
2.939340449216094697e+01,3.475978316655016442e+02,2.419006660109326390e+01
2.870148194535949315e+01,3.492743900143857445e+02,2.581785188549238796e+01
-2.590459726952824937e+01,3.535609543525823710e+02,-3.112495314241449407e+01
-2.721493257703660973e+01,3.532532081723550732e+02,-3.005517573146793353e+01
-2.860657145957657477e+01,3.542527919083652819e+02,-2.916241509003212684e+01
-2.980131667910008275e+01,3.552655567998888273e+02,-2.810051510742545489e+01
-3.077387926999901069e+01,3.545851429054407049e+02,-2.706236642979978768e+01
-3.163591490897468361e+01,3.539924548017866641e+02,-2.575288571449746300e+01
-3.301742098588234597e+01,3.524589013978106777e+02,-2.290818608702891979e+01
-3.249134437678318221e+01,3.535880308429143497e+02,-2.421381525275794644e+01
-3.353490866056236541e+01,3.513574259140556251e+02,-2.112419358614315001e+01
-3.446086058071363567e+01,3.520862283959064598e+02,-1.935130265139553174e+01
-3.506377842193822403e+01,3.529299628969298510e+02,-1.753435578219486501e+01
-3.529672042150779987e+01,3.539778417277457265e+02,-1.556993990730044253e+01
-3.503396822452056369e+01,3.552682018084506694e+02,-1.150805535571474891e+01
-3.522567248013019992e+01,3.551263095202153863e+02,-1.362076738870840131e+01
-3.452415046058005998e+01,3.563437911194671415e+02,-9.703066553917352621e+00
-3.291676125298898370e+01,3.554739299102240011e+02,-3.606705688240733565e+00
-3.334580264082062229e+01,3.565302795912778038e+02,-5.645139564585157643e+00
-3.367234175034035104e+01,3.573568154986284071e+02,-7.762364984446850968e+00
-3.169778325630252525e+01,3.563361987627746430e+02,-1.888058254374232803e+00
-2.996891491164300447e+01,3.569644580453518188e+02,-5.296314185064971980e-01
-2.791752288784581992e+01,3.571779698609890374e+02,2.654568498754397154e-01
-2.606910860900175209e+01,3.570304167652408296e+02,7.035076496102244947e-01
-2.529640749238336994e+01,3.558219300767245841e+02,2.017168612776793601e+00
-2.347059731871882704e+01,3.560229772390246126e+02,2.103553178763827525e+00
-2.325012949456964506e+01,3.553817740259776201e+02,4.067473417258094415e+00
-2.182480774105658483e+01,3.561568099345832934e+02,5.672955221721498908e+00
2.692573280148624804e+01,3.556796551878216519e+02,2.556416360117175213e+00
2.746635611804775579e+01,3.551820028070958983e+02,6.043024697324055339e+00
2.668690901152007200e+01,3.566020972725883666e+02,4.618044741425595845e+00
-1.514669557715104276e+01,3.559029031955697064e+02,-3.660325618505854806e+01
-1.719682852208602242e+01,3.559039520494908970e+02,-3.611665466734957164e+01
-1.777414715028562142e+01,3.545730950186463701e+02,-3.590800347961722139e+01
-1.898202964995709863e+01,3.537789201234348297e+02,-3.536067661914311344e+01
-2.084639200449107577e+01,3.550019782794819889e+02,-3.480687881244442394e+01
-2.185805171232744115e+01,3.543224686990165537e+02,-3.411442063295018556e+01
-2.316767013547681131e+01,3.539079760615864529e+02,-3.314461733171814473e+01
-2.459113390798743382e+01,3.539043385836748143e+02,-3.216240555259634704e+01
2.303695640680562917e+01,3.605378082716198946e+02,-7.168838723165090521e+00
2.211945407739300151e+01,3.611695805843653488e+02,-9.329796806213060734e+00
2.098512106543410027e+01,3.617782243930729464e+02,-1.130771724196840644e+01
1.952298994508765162e+01,3.621598523070599640e+02,-1.425385617428852214e+01
1.930748191193832497e+01,3.625870505884859085e+02,-1.257540658142084133e+01
1.920533476934907213e+01,3.617219904399603365e+02,-1.616680157984205479e+01
1.817184467710512408e+01,3.621092608210645949e+02,-1.786789736869796741e+01
1.697076782053458288e+01,3.625974217927237078e+02,-1.967003430093876659e+01
1.678741060021827991e+01,3.616729056505580502e+02,-2.152635230535859279e+01
2.612745330853553938e+01,3.573981076681253057e+02,2.486794857799422331e+00
2.560205769689130761e+01,3.581613327087529797e+02,7.466120041298042187e-01
2.481822227596355290e+01,3.591379913657250995e+02,-4.930573063148493418e-01
2.394645647608301431e+01,3.600993187338097528e+02,-1.719450880032914242e+00
2.323443355869312299e+01,3.607539762790088957e+02,-3.340450925428651630e+00
2.254544869867888934e+01,3.613162281126483322e+02,-5.188630261942162925e+00
1.464450844319377332e+01,3.605481357653341661e+02,-2.551804924390763318e+01
1.291517007039579390e+01,3.597670352927847830e+02,-2.757779395954339208e+01
1.063563919710032479e+01,3.592050581832343141e+02,-2.956223532278935906e+01
8.453073898166453048e+00,3.590438872145516029e+02,-3.106533078422268801e+01
6.020803080951934838e+00,3.588620929879575101e+02,-3.246386494728159988e+01
3.422237550823338026e+00,3.584976310009239455e+02,-3.368489126770762709e+01
1.543650202877778099e+01,3.622021103240065827e+02,-2.356807333177873787e+01
-2.032181991633063234e+00,3.584301893990146937e+02,-3.569167170567747149e+01
-4.115749390605227376e+00,3.577124005859489557e+02,-3.633599834765610836e+01
7.216586911376516866e-01,3.583202757470127153e+02,-3.477034766441989433e+01
-6.637686500451611238e+00,3.579767209988899026e+02,-3.678462579550459566e+01
-9.077653040410282870e+00,3.578792669752187976e+02,-3.699158112289681100e+01
-1.181123952936737709e+01,3.576154173637491454e+02,-3.686298566516745723e+01
-1.450538144566462506e+01,3.577153815857334962e+02,-3.633892518733319577e+01
3.012906043868668959e+01,3.505232268785343308e+02,2.126614293288701063e+01
2.955783741457105762e+01,3.495530814868314451e+02,2.366278581934214742e+01
3.013605683025878790e+01,3.529487620297568924e+02,1.763754915067232432e+01
2.968906513449161366e+01,3.547437405222375446e+02,1.626829733250922061e+01
2.941660395536974448e+01,3.545549475747408223e+02,1.408813502443833166e+01
3.000728345582616186e+01,3.528337550488114402e+02,1.989713313109472281e+01
2.823947227610624111e+01,3.555685342442625938e+02,1.052543944282160915e+01
2.784618402148782934e+01,3.551563684819763580e+02,8.361383470915443539e+00
2.867287446849722699e+01,3.561814424989311192e+02,1.278137723349071919e+01
-1.894515073594217114e+01,3.589564858517352945e+02,1.087419615617702462e+01
-1.978053732228957529e+01,3.580051695250500643e+02,9.301712752464176504e+00
-2.070412785823639013e+01,3.571034598794971657e+02,7.526869949639930724e+00
-1.875459604497206101e+01,3.585496589693333931e+02,1.605100859927670598e+01
-1.858695712893852203e+01,3.593393878298980439e+02,1.384079399250622622e+01
-1.811461102729661121e+01,3.604449501802413920e+02,1.169120859920881728e+01
-1.879203859149134104e+01,3.580430154550993507e+02,1.826697318277976478e+01
-1.880323321889175503e+01,3.573548377054777916e+02,2.030073892588799112e+01
-1.141500935090111568e+01,3.484025491769769474e+02,3.523849208073440309e+01
-1.008178245867120282e+01,3.478008909620759823e+02,3.624306803646253883e+01
-8.542924716338005098e+00,3.478247929902427131e+02,3.739034823538479912e+01
-7.033451471615283168e+00,3.481800404196260956e+02,3.850847875869224168e+01
-1.451499859399017467e+01,3.516680634734715341e+02,3.120481729459107001e+01
-1.362967767199664237e+01,3.517528390387110449e+02,3.277910560944843610e+01
-1.214288236197606174e+01,3.502878184377564708e+02,3.487005017558052344e+01
-1.263342744109338156e+01,3.520093231147347979e+02,3.439458676491629063e+01
-1.526999766686953919e+00,3.455804718884912177e+02,3.912762383498817087e+01
-3.520934940056491769e+00,3.468124506962838609e+02,3.957120932779765354e+01
-5.297495991629341816e+00,3.482500517193584528e+02,3.958860130243590447e+01
8.231988737674305057e-01,3.461031779507662804e+02,3.924119617274132565e+01
3.045302421442491081e+00,3.470988073394952949e+02,3.875827412415615214e+01
5.249494271582637595e+00,3.483029288104271473e+02,3.824031197748592348e+01
7.636877132917328836e+00,3.494103472376531840e+02,3.793057872616259374e+01
1.188283749807015255e+01,3.493097916924416495e+02,3.668750774672281523e+01
1.410493097499499981e+01,3.501616997626266539e+02,3.623697851747915877e+01
9.947886206734340320e+00,3.504667480565933602e+02,3.764421504081097680e+01
1.626323499244645276e+01,3.508929288921622742e+02,3.563825155100437314e+01
2.006696113898405542e+01,3.501168563405925056e+02,3.380769598039973545e+01
1.837260430936208877e+01,3.516680476707047660e+02,3.490259725207878461e+01
-1.686877167475488903e+01,3.547597425853919049e+02,2.757847133554721353e+01
-1.774972859158148708e+01,3.548783236634514537e+02,2.563124039746297100e+01
-1.603405517537814262e+01,3.540093916977812682e+02,2.910089116456121516e+01
-1.502186308534617076e+01,3.542908159757392355e+02,3.071351258672831008e+01
-1.828959595657882176e+01,3.573006956712845295e+02,2.223468802980494274e+01
-1.770796142451376554e+01,3.570732297737047816e+02,2.422052243994571441e+01
2.187642837816242647e+01,3.509892581078158287e+02,3.301146129661879058e+01
2.357409263057860116e+01,3.515924155925186483e+02,3.191029750312275581e+01
2.656349885231649210e+01,3.507602235625038247e+02,2.907175329654366891e+01
2.531721892465051127e+01,3.522695672332850449e+02,3.034286438003063324e+01
2.778473111818966501e+01,3.511598130853012094e+02,2.728174691562958287e+01
2.873659076318600469e+01,3.514000498928253364e+02,2.532157164074786238e+01
-2.612022032455788434e+01,3.552312759800990989e+02,-3.118216466770536854e+01
-2.742552427513757607e+01,3.548559074981467347e+02,-3.018685266592221694e+01
-2.869308492716282544e+01,3.558937529596917102e+02,-2.901748305664022709e+01
-3.080177958496180679e+01,3.562190844213137666e+02,-2.669650741888764500e+01
-2.968203522021519802e+01,3.568462465733510953e+02,-2.743870810523770487e+01
-3.170662072874420900e+01,3.556100413433243830e+02,-2.569919007295613511e+01
-3.257738559047987792e+01,3.550520798316955506e+02,-2.427382933848861413e+01
-3.409782946214405541e+01,3.530654696842802878e+02,-2.119427354666258267e+01
-3.341023942268459734e+01,3.541740205883446606e+02,-2.267985429203100978e+01
-3.476047769343047378e+01,3.538324441715409989e+02,-1.936864838924204690e+01
-3.510212595279357117e+01,3.546237233474752770e+02,-1.745661652928004415e+01
-3.508317919318118783e+01,3.557454775122679962e+02,-1.547250639723793952e+01
-3.460090494904251557e+01,3.568235889936839840e+02,-1.189712766733148541e+01
-3.454582431700929135e+01,3.569552631007153991e+02,-1.382398970280267392e+01
-3.372402197018881509e+01,3.578645445787051358e+02,-9.951640257833961556e+00
-3.222674288612342508e+01,3.573722850611445097e+02,-3.807677182019862272e+00
-3.255207587469286068e+01,3.582148342313920466e+02,-5.902041673322234061e+00
-3.264346968950475514e+01,3.587332805910891693e+02,-8.126104043091647355e+00
-3.062918192039402498e+01,3.580383990922087492e+02,-2.218349485844793634e+00
-2.853996276509599994e+01,3.584862419898373105e+02,-1.234092149473024591e+00
-2.639512511093991520e+01,3.586224165159242148e+02,-7.431980619929285936e-01
-2.457043309323002234e+01,3.587328734204275520e+02,-8.287235827964996027e-01
-2.409876825492809260e+01,3.573145781841060966e+02,4.587247389459117031e-01
-2.205194643386454345e+01,3.571188967697183898e+02,8.996212263719947089e-01
-2.159859741834337754e+01,3.566553733504380830e+02,3.285080232148953172e+00
-2.024484873751302416e+01,3.577279457722548273e+02,5.185982311567459035e+00
2.685902676001631306e+01,3.569426006999981382e+02,7.113715855148790901e+00
2.560201352956160292e+01,3.583971876798931362e+02,3.838932180522512727e+00
2.584096747635013358e+01,3.583560484691209922e+02,5.875623474718480566e+00
-1.682912496443191941e+01,3.575351779177437379e+02,-3.587238531424676324e+01
-1.898744185699531783e+01,3.570497492073901071e+02,-3.534919264589652244e+01
-1.946857225302710503e+01,3.555545731349063203e+02,-3.539976813715989579e+01
-2.236203984149196344e+01,3.563737663622743526e+02,-3.384112516169590634e+01
-2.086454275136204473e+01,3.567962151596087779e+02,-3.457732959309237231e+01
-2.331834612193946654e+01,3.554023469803448734e+02,-3.329543819922714931e+01
-2.479875189081767672e+01,3.556274779766558254e+02,-3.218751968762212812e+01
2.171759552557073647e+01,3.618500898143724953e+02,-7.235353728195654810e+00
2.065562598507322889e+01,3.623250227498511435e+02,-9.041983172673955238e+00
1.948682319187811984e+01,3.627020555788184311e+02,-1.056569967500144003e+01
1.786172127116302022e+01,3.629793331918502872e+02,-1.561301606761237259e+01
1.728604883893750710e+01,3.632578070072418086e+02,-1.343118769159245574e+01
1.754110109563789877e+01,3.631874817133878537e+02,-1.099701156889178222e+01
1.661204959271283599e+01,3.634675111251509065e+02,-1.767892073075208970e+01
1.525626240639584275e+01,3.640417434806793722e+02,-1.965200431670178460e+01
1.548692909203584023e+01,3.633194760913266919e+02,-2.164341232442590979e+01
2.485287080826477180e+01,3.592567826193629230e+02,2.052368347054105868e+00
2.385708670587553826e+01,3.602218464126225399e+02,5.310557629011116720e-01
2.279554603985302208e+01,3.611728622103215685e+02,-1.118134555333927249e+00
2.180255606146415559e+01,3.619647296329958408e+02,-2.916997945766828249e+00
2.104203703460881769e+01,3.624341110145757625e+02,-5.139808520332200814e+00
1.300406233898955222e+01,3.621881747798389029e+02,-2.708648101409886522e+01
1.406087922587779815e+01,3.628750618260305032e+02,-2.527551053060826192e+01
1.148621185192414096e+01,3.612275341579514816e+02,-2.878539345300431407e+01
9.265756684372018270e+00,3.614309382625862668e+02,-3.036225248201014182e+01
6.969977569094208292e+00,3.611874304225273704e+02,-3.168500004020237526e+01
4.422568532740449143e+00,3.607533274554153309e+02,-3.293315324003548028e+01
1.833602715822529206e+00,3.602642809567901168e+02,-3.403004904139237397e+01
1.407512328441164229e+01,3.639464368550075619e+02,-2.341691413238704911e+01
-8.333612238725862653e-01,3.601770931071167752e+02,-3.485143426079575590e+01
-3.065836469428749211e+00,3.605466796333120101e+02,-3.512355535176051546e+01
-4.962325042584556201e+00,3.594992340810736096e+02,-3.604390898829210954e+01
-7.629665250403832033e+00,3.597005269876794955e+02,-3.605555060019540292e+01
-1.042540779006402829e+01,3.592264891875137209e+02,-3.623494342149913905e+01
-1.295593567954047387e+01,3.590506719025826783e+02,-3.584799414360809777e+01
-1.575032117524916231e+01,3.589320171296228636e+02,-3.506048878013763925e+01
2.948053526121555379e+01,3.514895621571430979e+02,2.323311369661238501e+01
2.951049157199376793e+01,3.532069180903228585e+02,2.196224195083746267e+01
2.960530219530807727e+01,3.550376597248351800e+02,1.859342243578592857e+01
2.905166317763068662e+01,3.569461948887013136e+02,1.737921308109972074e+01
2.899484142139350595e+01,3.566284390805354292e+02,1.506835219762259115e+01
2.922866026642336124e+01,3.552732057936383967e+02,2.076235259063851402e+01
2.764989192648285155e+01,3.577971058294496061e+02,1.158163272270645194e+01
2.722959807934569199e+01,3.572926490036635414e+02,9.411755051605823041e+00
2.803422841193490811e+01,3.582516876162001154e+02,1.375388785521375112e+01
-1.841471104633471967e+01,3.599418859357206770e+02,8.495969129029141698e+00
-1.766571433848227457e+01,3.612513410465552397e+02,9.562093822843875657e+00
-1.925001002762746083e+01,3.588381957918971921e+02,6.890440444999136993e+00
-1.782925573454745205e+01,3.606297513730168589e+02,1.533190029502748075e+01
-1.794443124604850226e+01,3.598689164374029019e+02,1.756402509622761698e+01
-1.759534612618382710e+01,3.615208564609673090e+02,1.301885687421509452e+01
-1.708577179349950370e+01,3.624711596457261749e+02,1.086219686640052373e+01
-1.783232945820931548e+01,3.591307130613540153e+02,2.013814070825893054e+01
-1.108289986537650051e+01,3.501080920806660401e+02,3.613928867858488303e+01
-9.901563988995089716e+00,3.492300769359498531e+02,3.701299279734804060e+01
-8.494621681008281300e+00,3.496209211114629625e+02,3.818242638608767692e+01
-6.794149295834490232e+00,3.501406450302864641e+02,3.940832491041245333e+01
-1.424022890821840193e+01,3.533815165370417049e+02,3.194887200900879165e+01
-1.320956732157515390e+01,3.536957281061059462e+02,3.347366849871706762e+01
-1.138081239646415455e+01,3.521491727013034279e+02,3.596347486275173111e+01
-1.207393168420374252e+01,3.539027752773551470e+02,3.497373955620902564e+01
-1.133975471022509396e+00,3.474380941482003209e+02,4.003505675429466493e+01
-3.027556008746829619e+00,3.487351512763304981e+02,4.030737276021395843e+01
-4.688775911604206925e+00,3.499421292325313289e+02,4.016826072610800935e+01
1.015216582317831406e+00,3.483673613930949386e+02,3.950531394564091414e+01
3.300380941494446940e+00,3.494201089533369213e+02,3.892739837642471201e+01
5.657544882799804498e+00,3.505163201819945584e+02,3.863109654428185280e+01
7.950025354540926514e+00,3.515597755565939906e+02,3.850659936461065058e+01
1.217626357641761814e+01,3.515887332269948047e+02,3.724866129287425309e+01
1.429143968046409086e+01,3.524639612774984130e+02,3.667558172925362925e+01
1.012865374918338546e+01,3.525676412791996199e+02,3.817625329400225098e+01
1.642697987786686653e+01,3.532240254734545601e+02,3.593771578426650137e+01
2.028045702599909461e+01,3.525769939286872159e+02,3.405420617100575953e+01
1.835259941651392523e+01,3.541242622011498042e+02,3.510020705865677826e+01
-1.710716413390109381e+01,3.566641118499027812e+02,2.622984675316149605e+01
-1.607696013221893239e+01,3.569507850860959479e+02,2.795292801107720493e+01
-1.558757859084531816e+01,3.558457846953473336e+02,2.949658158143948583e+01
-1.431515381636063822e+01,3.565491582845318703e+02,3.094568961117635197e+01
-1.375790527910609740e+01,3.553528255848758022e+02,3.230102313402631609e+01
-1.714603105339549671e+01,3.589936164498364519e+02,2.234596622194880311e+01
-1.644645338350425590e+01,3.588496362341658141e+02,2.439745547736309561e+01
2.205872917683626611e+01,3.536224581974592525e+02,3.295757666659626750e+01
2.383267482249646108e+01,3.536666964194304228e+02,3.155725705408136861e+01
2.665422749121362855e+01,3.530609213121784933e+02,2.852727070563319245e+01
2.523964334434431578e+01,3.546009731203214415e+02,2.982100375414444215e+01
2.770013366892650097e+01,3.535021843495899248e+02,2.659877787212025169e+01
2.872869921103211155e+01,3.534315361999670131e+02,2.429703695248425532e+01
-2.623726218044942016e+01,3.568317835180969269e+02,-3.069599398772809451e+01
-2.747065470084450567e+01,3.564589124823558564e+02,-2.984555021459312130e+01
-2.847116528563381621e+01,3.573744051109849238e+02,-2.803320720017068268e+01
-3.033191999108863257e+01,3.573902944225180249e+02,-2.548215828966159791e+01
-3.135451807965725379e+01,3.570794097096912765e+02,-2.455899159294459722e+01
-2.913386301185266447e+01,3.577568885333581079e+02,-2.580566898468992676e+01
-3.232127284057028049e+01,3.565330231982167675e+02,-2.361042090659022818e+01
-3.327712429905928815e+01,3.557315554904635064e+02,-2.235881426580372278e+01
-3.413049924917034872e+01,3.547597983219617390e+02,-2.094541709489043413e+01
-3.452868357265449362e+01,3.555799256819805123e+02,-1.901950378596395197e+01
-3.467740018513389089e+01,3.562284948395069364e+02,-1.708438905927041063e+01
-3.408075987125260298e+01,3.573155851103354621e+02,-1.552457127409309123e+01
-3.357354344743228580e+01,3.580689187181135935e+02,-1.203312121203408935e+01
-3.322553431537897239e+01,3.581225985376942731e+02,-1.386579607564272365e+01
-3.244319018091456996e+01,3.588543737391423178e+02,-1.029601780903573527e+01
-3.114640812742385734e+01,3.588885912516606140e+02,-4.245452543777165744e+00
-3.127974729646768992e+01,3.593995480625229675e+02,-6.509620043763284514e+00
-3.107784760570144300e+01,3.595197807743217027e+02,-8.733681317239366138e+00
-2.936482768589853976e+01,3.593663085309352141e+02,-2.907971373778895696e+00
-2.714411336183948720e+01,3.597479196242027228e+02,-2.233711907897781401e+00
-2.517274665118549137e+01,3.600045982012002810e+02,-2.233785731561015453e+00
-2.262852694498822004e+01,3.585649203466759900e+02,-8.080048378781690133e-01
-2.324899259903339299e+01,3.600328544962956698e+02,-2.297095229009462614e+00
-2.046621907091518722e+01,3.581632893521727965e+02,5.487492238634024133e-01
-2.010631453912149169e+01,3.580534649188699632e+02,2.836616263369034385e+00
-1.889099448215931076e+01,3.593612335776130067e+02,4.460885010367942272e+00
2.610829986727264185e+01,3.587147527339118938e+02,8.245619932123847917e+00
2.456271788347398299e+01,3.596695985424000810e+02,4.485147122259115271e+00
2.496530714797566475e+01,3.596722396264322583e+02,6.990832745684700811e+00
-1.814564685512674913e+01,3.585466947261428459e+02,-3.463690114174057300e+01
-2.011993900916933598e+01,3.582422943308186518e+02,-3.397877654996835872e+01
-2.183238281828184313e+01,3.579974587005838202e+02,-3.324745761858759607e+01
-2.320121887666717697e+01,3.578690605143464722e+02,-3.236084056477909598e+01
-2.395035584815249763e+01,3.568707304314605722e+02,-3.252633945110834901e+01
-2.507649004157282135e+01,3.573784493631791293e+02,-3.127407022332089070e+01
1.977689807831583124e+01,3.628290203505559930e+02,-6.901766553721862429e+00
1.844712602520310440e+01,3.630645258564838400e+02,-8.631400938652831201e+00
1.602615582235487324e+01,3.638422308365644540e+02,-1.558855914142358046e+01
1.541214926532225959e+01,3.636050756041649947e+02,-1.125153311952195168e+01
1.498786092102608336e+01,3.639398423665346058e+02,-1.353563121059014307e+01
1.606438323760446352e+01,3.634295892764930613e+02,-8.745007016408628431e+00
1.477641290222137016e+01,3.645691116913600922e+02,-1.760866528353595939e+01
1.333681719766486573e+01,3.651983846840290084e+02,-1.947299964600629352e+01
1.365792037355486244e+01,3.647149439436743705e+02,-2.146915406011513028e+01
2.363001339694954694e+01,3.603737173921145427e+02,2.765325459249970308e+00
2.254843639120326770e+01,3.612001757091232435e+02,1.212408776071547400e+00
2.147038229718916824e+01,3.619917462600703288e+02,-3.002291493466009431e-01
2.034679445708576395e+01,3.627238243246579827e+02,-1.496850944394198413e+00
2.001080603299034877e+01,3.629536244983107167e+02,-3.323179691339258390e+00
1.875374806046594500e+01,3.632669794105823939e+02,-4.898085099197789560e+00
1.164532067899723344e+01,3.641019985623235584e+02,-2.700255128403232874e+01
1.047123733511546462e+01,3.631741364721532364e+02,-2.890954850838838652e+01
1.254924927093464504e+01,3.644608653169054264e+02,-2.508102718827326783e+01
7.906739176060211705e+00,3.633639773000983837e+02,-3.021685059469236734e+01
5.449466964595481855e+00,3.628200674774417394e+02,-3.148513004963918149e+01
2.807800235389761312e+00,3.621163272135900115e+02,-3.273288187895906276e+01
3.715661380609489584e-01,3.616217409998079120e+02,-3.363033272166417476e+01
1.177759633440238929e+01,3.651950616978725179e+02,-2.324504330790866291e+01
-1.525752262212826338e+00,3.619801075113180104e+02,-3.316897700170625995e+01
-3.705458740560981568e+00,3.615635957586135873e+02,-3.363011134057970253e+01
-5.557213341922846439e+00,3.607867510022840634e+02,-3.486340177161944354e+01
-7.129729646040480873e+00,3.608848820377660900e+02,-3.387738265427632456e+01
-9.058534216173026010e+00,3.603192233188468663e+02,-3.488143491782415850e+01
-1.129748348476535824e+01,3.600660813361105284e+02,-3.449147378833795585e+01
-1.382137103422123658e+01,3.596851339199697577e+02,-3.427488289585841841e+01
-1.660992606417571693e+01,3.594209563515039463e+02,-3.344842497952706140e+01
2.859417956545411243e+01,3.553983719777071997e+02,2.302633909652310606e+01
2.875245834455398608e+01,3.573110937351521557e+02,1.965564538687752005e+01
2.806779910862255889e+01,3.590761814180106057e+02,1.839326634835174445e+01
2.825660839186867435e+01,3.586286490019668349e+02,1.607568806308444209e+01
2.816910164349490131e+01,3.575068827961772513e+02,2.185881546801315523e+01
2.682684977709859808e+01,3.597663388338704635e+02,1.261895594905345419e+01
2.644816848973611911e+01,3.592511741474007749e+02,1.048181738489233972e+01
2.719997424699570843e+01,3.600648780557495456e+02,1.481867372257825011e+01
-1.800725321653930777e+01,3.605734810037442912e+02,6.055481429541660354e+00
-1.722832308927812406e+01,3.618611726166203084e+02,7.272797977219879861e+00
-1.653923459764281390e+01,3.630732627560323635e+02,8.549679942989593329e+00
-1.684297188726365135e+01,3.623414494958270780e+02,1.440701218825701346e+01
-1.656564274547279325e+01,3.616969456820046389e+02,1.674121427444080012e+01
-1.686434610014222457e+01,3.606718589349736135e+02,1.879048623244460714e+01
-1.636926345441758812e+01,3.633998322787974757e+02,1.230862672314174944e+01
-1.587796174125690740e+01,3.640974793130544072e+02,9.959385931561023142e+00
-1.614410486742281847e+01,3.604833873566932425e+02,2.072446586507851407e+01
-1.003058247687710391e+01,3.510309835544680936e+02,3.728435312208644348e+01
-8.581090963932634708e+00,3.514042549002855367e+02,3.846747528068218003e+01
-5.073305748957123384e+00,3.518194529434609308e+02,3.993436805719124294e+01
-6.920999414617176271e+00,3.522410440060554038e+02,3.935703397859246166e+01
-1.252637141799916876e+01,3.556836769020889051e+02,3.379591816503290858e+01
-9.999574012401808432e+00,3.528475930252171224e+02,3.730852496533438512e+01
-1.083470353937862640e+01,3.542662678836417740e+02,3.626240000403556962e+01
-1.120928502650457759e+01,3.559334914684808382e+02,3.525131998768634389e+01
-9.861048446428641867e-01,3.497477894296514478e+02,4.006269725667760184e+01
-2.847867952246770251e+00,3.512504075497996610e+02,4.015060344098280609e+01
1.355329078823495959e+00,3.506839276301435575e+02,3.945073983499861470e+01
3.698045383342565273e+00,3.517824659808574665e+02,3.904186450794239249e+01
5.882750671292098943e+00,3.529018368165575907e+02,3.887126685422602890e+01
7.927526337922129684e+00,3.539399154886597216e+02,3.875372357562139314e+01
1.221494166223135025e+01,3.539967387506302998e+02,3.763692009570671360e+01
1.441057151728914576e+01,3.547666363309402300e+02,3.685735977646579187e+01
9.858991133153420350e+00,3.546262281311360312e+02,3.848080661578535455e+01
1.631752961403723745e+01,3.557753688635838785e+02,3.603500705700965057e+01
2.012800817224050220e+01,3.551085844608858793e+02,3.403285208593240441e+01
1.802560832339787567e+01,3.566469820085046081e+02,3.501528031824231846e+01
-1.587223908315010767e+01,3.585451015762191105e+02,2.625467080964041244e+01
-1.469617250794352614e+01,3.580338549462983906e+02,2.915423270824473434e+01
-1.453081908874046846e+01,3.593093549499477035e+02,2.728325008315802336e+01
-1.275462163595392795e+01,3.574318118991430993e+02,3.245124304380640012e+01
-1.332168906815935117e+01,3.585671766102345259e+02,3.052617416948791274e+01
-1.530164563042598758e+01,3.603292456213604851e+02,2.277688048929204001e+01
